-0.006648 0.005393 0.022450
0.002635 -0.004382 0.003559
0.001695 -0.005573 0.009706
-0.011800 0.003515 0.022845
0.007747 -0.005064 0.009835
0.034328 -0.009697 0.012217
0.011250 0.002500 0.000200
-0.021278 -0.012995 0.011641
0.003000 -0.005206 0.008537
0.006815 -0.005079 0.008269
-0.000500 -0.005220 0.008541
0.007926 0.006328 0.022706
0.032904 -0.011278 0.012718
0.005205 -0.005206 0.009212
-0.027586 -0.012180 0.011577
-0.038942 0.000050 0.008589
0.032010 -0.009408 0.012295
-0.008739 -0.004603 0.023800
0.038597 -0.008571 0.016671
-0.028815 -0.007737 0.021287
0.014917 -0.011930 0.016780
-0.038404 0.000964 0.007792
-0.015807 -0.012180 0.009251
-0.000055 -0.005410 0.008305
-0.012505 -0.011925 0.017728
0.024680 0.004611 0.006186
0.035749 -0.009542 0.015166
0.036056 -0.012695 0.005519
0.028748 -0.005577 0.000799
0.032846 -0.010127 0.005226
-0.023320 -0.012695 0.018081
-0.040047 -0.002647 0.017659
0.038862 -0.014250 0.007658
0.024228 -0.007758 0.004786
-0.001035 -0.005420 0.009635
0.001345 -0.005538 0.008118
0.001215 -0.005510 0.009765
0.033774 -0.010542 0.015010
0.008055 -0.005790 0.010645
0.039841 0.004645 0.003519
-0.039749 -0.001549 0.016647
-0.005519 0.000637 -0.011000
0.003060 -0.005081 0.008608
0.002815 -0.005420 0.009755
-0.000090 -0.005116 0.008560
0.037725 -0.008710 0.015845
0.025955 -0.004767 0.013961
0.023709 -0.001391 0.023800
-0.040310 0.000742 0.007284
0.003710 -0.005075 0.009499
0.036594 -0.012995 0.005819
0.006560 -0.005129 0.009240
0.024623 -0.003430 0.021235
-0.003266 -0.002498 0.001776
0.009155 -0.003430 0.012922
0.000975 -0.005335 0.009490
-0.012284 -0.011378 0.008420
-0.039983 -0.014250 0.014296
0.001300 -0.005168 0.008338
0.027558 -0.001569 0.002066
-0.043322 -0.001282 0.006943
-0.008486 0.007080 0.024465
-0.040143 -0.009585 0.006517
-0.035800 0.005313 0.004690
0.043284 0.005946 0.018725
0.005539 -0.005069 0.009521
0.003665 -0.005509 0.008131
0.009618 -0.004230 0.012785
-0.024066 -0.003434 0.012221
-0.017827 -0.004630 0.000750
0.004717 -0.005284 0.009507
-0.002596 -0.005291 0.009915
0.014954 -0.004469 0.004843
0.035991 -0.014095 0.019358
-0.007401 0.006726 0.022600
0.012291 -0.004591 0.000750
0.018280 0.004930 0.007330
-0.044210 0.000570 0.011524
0.030002 0.003444 0.024963
-0.039749 -0.002561 0.017953
0.024349 -0.011880 0.017236
-0.024594 -0.012995 0.018456
-0.000440 -0.005144 0.008543
-0.023342 0.008546 0.013424
0.011553 0.003419 0.002153
0.032244 -0.010442 0.009963
0.001880 -0.004430 0.003461
-0.036490 -0.012695 0.008862
0.003315 -0.005501 0.008046
0.032686 -0.011342 0.010464
0.042101 -0.014833 0.011953
0.006507 -0.001253 0.023800
0.009398 -0.003511 0.012935
0.028382 -0.005743 0.000727
0.003010 -0.005203 0.008339
0.009197 -0.003525 0.012174
-0.024329 -0.004230 0.012244
0.033951 -0.010542 0.010088
0.030561 -0.007849 0.008772
-0.038989 -0.000767 0.007085
0.021920 0.004927 0.007315
-0.008101 0.007337 0.024381
-0.031005 -0.014225 0.007253
-0.040015 -0.002192 0.008111
-0.007320 0.005125 0.022472
-0.002823 0.003229 0.024762
0.030689 -0.004196 0.023800
0.002710 -0.005095 0.009208
0.032952 -0.011228 0.012389
0.001205 -0.005326 0.009198
0.037799 -0.008601 0.016616
0.024250 0.005040 0.006170
-0.009151 0.009787 -0.018000
0.015462 0.002856 -0.016878
0.023127 -0.012695 0.019612
0.027000 -0.006110 0.000599
0.020210 0.004900 0.006175
0.000688 0.002798 0.023439
0.006045 -0.005400 0.008035
0.001915 -0.005171 0.008318
0.033900 -0.010160 0.007702
-0.039400 0.002220 0.008950
0.009938 -0.003525 0.012581
0.001270 0.005409 -0.018000
0.004186 0.005270 0.004402
0.014991 -0.004334 0.004976
-0.036826 0.000870 0.023263
-0.038742 0.002220 0.008763
0.032844 -0.011128 0.012815
-0.038931 -0.000536 0.008272
0.000250 -0.005220 0.009454
0.015937 -0.004084 0.024347
0.029777 -0.008767 0.008741
-0.002681 -0.005000 0.008684
0.044898 0.002179 0.011891
0.006494 0.006168 0.024179
0.029928 -0.007905 0.007660
-0.000418 0.027056 -0.006828
0.005415 -0.005545 0.009676
-0.001510 -0.005145 0.008308
-0.023162 0.004978 -0.018000
0.039866 0.003670 0.018913
0.009560 -0.004230 0.012198
-0.023787 -0.011930 0.012872
0.027351 -0.006082 0.000591
-0.039400 -0.001980 0.006960
0.012908 -0.012695 0.015342
-0.024305 -0.004230 0.012738
0.018240 0.004740 0.006200
-0.036672 -0.000280 0.023538
-0.038989 -0.002543 0.008315
-0.000885 -0.005510 0.008025
0.015890 0.002772 0.002142
-0.000865 -0.005292 0.008300
0.030734 -0.010542 0.014340
-0.002425 -0.005590 0.007970
-0.027465 -0.012645 0.010549
-0.009613 -0.012945 0.005009
-0.007310 0.006711 0.021106
0.005545 -0.005563 0.008097
-0.001105 -0.005375 0.008300
0.026110 0.002773 0.002142
0.009329 -0.004230 0.012244
0.032315 -0.012945 0.016395
0.006520 -0.005145 0.009482
0.039739 -0.012995 0.009501
0.014821 -0.004410 0.004873
0.001440 -0.012695 0.006544
0.003020 -0.005174 0.008319
-0.000865 -0.005065 0.009506
0.033420 -0.010442 0.014553
0.015270 0.004980 0.007080
0.041607 0.004645 0.019523
-0.023265 -0.004051 0.023800
0.003000 -0.005175 0.009255
0.032500 -0.014250 0.020195
0.023287 -0.004132 0.000200
0.005055 -0.005162 0.008579
0.019290 0.004860 0.006175
-0.001095 -0.005153 0.008583
-0.038931 -0.001336 0.008272
-0.034315 -0.011880 0.007842
0.032645 -0.011171 0.012778
-0.000173 -0.005059 0.008268
0.007690 -0.005420 0.008232
0.028818 -0.007767 0.004763
0.002144 -0.004405 0.003468
-0.038989 -0.002543 0.008315
0.034691 -0.011042 0.012893
-0.024901 -0.011930 0.013041
0.015273 -0.007710 0.003632
-0.027329 0.003475 0.022846
0.007710 -0.005425 0.009545
0.007323 -0.005462 0.009857
0.032181 -0.011078 0.011774
-0.001105 -0.005510 0.008025
-0.009575 -0.007588 0.003749
0.042297 -0.001940 0.016526
0.032928 -0.010442 0.014708
0.016704 0.004205 0.022140
0.032343 -0.011121 0.012238
-0.002538 -0.005280 0.007955
0.042260 -0.008100 0.014526
0.007480 -0.005200 0.009835
-0.020259 -0.004014 0.000200
0.030342 -0.011342 0.012865
-0.040053 -0.002198 0.017649
0.007098 -0.005078 0.009164
0.039223 0.004362 0.006649
0.040245 -0.014095 0.014889
0.020030 0.004767 0.007315
-0.024614 -0.003440 0.012989
0.031940 -0.009390 0.012265
-0.003851 -0.001360 0.001698
-0.023863 -0.004637 0.024041
-0.007637 0.005344 0.022593
0.032733 -0.010282 0.007279
-0.040130 -0.014893 0.018223
-0.027791 -0.011930 0.010821
0.020006 0.005070 0.006170
-0.020607 -0.014225 0.015978
0.029176 -0.003989 0.000015
0.015830 0.004900 0.006170
0.002389 -0.005335 0.008286
-0.024718 -0.004230 0.012718
0.005175 -0.005048 0.009523
0.027917 -0.004805 0.011616
0.032129 -0.010542 0.009978
0.004475 -0.005048 0.008267
-0.002780 -0.005590 0.009865
-0.040759 -0.004728 0.013860
0.007015 -0.005420 0.009635
0.032999 -0.010127 0.005083
-0.036810 -0.012995 0.015753
-0.017827 -0.001430 0.023800
0.036056 -0.012695 0.005519
-0.028861 -0.012695 0.016490
0.015272 -0.007668 0.004901
-0.040984 -0.004248 0.011099
-0.009506 -0.003696 0.003524
0.031217 -0.011342 0.010609
0.030476 -0.008617 0.007709
-0.039051 0.000039 0.007047
0.007682 -0.005469 0.009510
-0.038401 -0.002233 0.007747
0.022868 -0.007656 0.020161
-0.006469 0.006070 0.022721
0.022094 -0.012645 0.009662
0.024375 0.003490 0.001937
-0.009750 -0.000700 0.023212
0.004824 0.006435 0.001903
0.033686 -0.010542 0.014757
-0.007072 0.006591 0.022593
0.002737 -0.004421 0.003644
0.028200 -0.010840 0.017279
0.007250 0.004261 0.024966
-0.000150 -0.005087 0.008595
0.002208 -0.004340 0.003416
-0.025017 -0.011930 0.011994
0.002462 -0.004412 0.003575
0.038631 0.004332 0.006301
0.005450 -0.005191 0.008535
-0.039841 0.000904 0.008467
0.034067 -0.009152 0.014114
-0.007212 0.006719 0.021150
0.004495 -0.005228 0.009479
0.034742 -0.010442 0.012316
-0.024337 -0.003430 0.011980
-0.037587 -0.011564 0.019518
-0.001585 -0.005450 0.009735
0.004760 -0.005075 0.009499
0.028767 -0.012995 0.012150
0.007929 -0.005276 0.007955
-0.040390 -0.001689 0.007557
-0.039589 0.000058 0.018282
-0.003925 -0.001631 0.001500
-0.039305 -0.002324 0.018296
0.026491 -0.012130 0.015269
-0.012763 -0.011608 0.016616
0.005895 -0.005412 0.009492
0.030316 -0.009152 0.013043
0.032763 -0.010812 0.005149
0.003327 0.003175 0.023453
0.009709 0.002743 0.001500
-0.037498 -0.012645 0.006466
0.031879 -0.009364 0.011933
0.044322 0.006610 0.009424
0.038842 -0.008710 0.016240
0.007685 0.006569 0.022692
0.019640 0.004740 0.006200
0.035684 -0.009592 0.009878
-0.030118 -0.007606 0.004774
0.004495 -0.005079 0.008269
0.024494 -0.003630 0.004826
0.029752 -0.007964 0.007713
0.032500 -0.011292 0.012500
0.017715 0.005170 0.007650
-0.039869 -0.000336 0.007128
0.018404 -0.001332 0.000750
0.032809 -0.014250 0.015836
0.009139 -0.003434 0.012131
0.015750 -0.003900 0.000200
0.033004 -0.009377 0.012037
-0.024195 -0.004130 0.012779
0.015491 0.003067 0.024756
-0.030125 -0.007594 0.003756
0.032544 -0.011322 0.013088
0.015184 -0.001427 0.001500
0.028880 -0.006117 0.019221
-0.028292 -0.011930 0.015201
-0.037550 -0.012995 0.013937
0.016530 0.004767 0.007315
-0.006798 0.006417 0.021002
-0.039012 -0.002780 0.016717
-0.007423 0.005271 0.022598
0.016501 0.004351 0.022136
0.006835 -0.005275 0.009486
0.004669 0.006346 0.001705
0.034646 -0.006117 0.006489
0.027099 -0.010117 0.010854
-0.024307 -0.003430 0.013009
0.028232 -0.006233 0.000971
0.007300 -0.005115 0.009670
-0.021325 0.003477 0.002154
0.015292 -0.014250 0.016938
-0.040148 0.002220 0.007643
0.006722 0.005340 0.021084
0.029050 -0.003926 0.024367
-0.029448 -0.004407 0.024082
0.005065 -0.005498 0.008049
0.001565 -0.005510 0.008030
0.000351 -0.004060 -0.005000
0.000900 -0.005144 0.009247
0.038300 -0.010117 0.017691
-0.029336 -0.001048 0.023800
-0.014202 -0.011608 0.009149
0.032438 -0.010442 0.014749
0.029255 -0.007803 0.008208
-0.029986 -0.007603 0.004916
-0.006824 0.006411 0.022600
0.032856 -0.014095 0.016334
-0.033181 -0.003430 0.004333
0.043269 0.003495 0.010446
-0.034607 -0.014853 0.003134
-0.009409 -0.011884 0.017245
0.008067 -0.005000 0.008739
0.000165 -0.005498 0.008049
0.044947 0.005946 0.012158
0.030176 -0.007767 0.009190
0.029441 -0.010117 0.007820
0.024760 0.004695 0.007358
0.005765 -0.005498 0.008049
-0.006959 0.005284 0.022650
0.024747 -0.003970 0.024157
0.035209 -0.010247 0.007078
0.038821 -0.007769 0.015518
-0.018518 -0.004725 0.024258
0.032460 -0.011228 0.012036
-0.020259 -0.004014 0.000200
-0.005050 0.002500 0.000000
0.011250 -0.003900 0.000750
0.030100 -0.008542 0.009850
0.018285 0.005110 0.007330
0.038754 0.004304 0.006293
-0.005768 -0.004850 0.024241
0.015220 0.004640 0.006405
0.004766 -0.005064 0.008269
0.001521 -0.004418 0.002060
-0.040015 -0.000318 0.007289
0.020752 -0.012945 0.008189
0.030834 -0.004382 0.024306
0.027138 -0.003430 0.005039
0.042075 0.005945 0.019048
-0.039544 -0.001792 0.018026
0.039453 -0.009823 0.020838
-0.004586 -0.000800 0.001940
-0.030067 -0.001447 0.023142
0.009193 -0.004230 0.012470
0.000600 -0.005075 0.008291
0.026739 -0.004875 0.010958
-0.023133 -0.012995 0.007500
0.002965 -0.005450 0.009735
-0.000755 -0.005228 0.008311
0.015685 -0.011880 0.007842
-0.002120 -0.005107 0.007984
-0.008938 0.005850 0.024923
0.006245 -0.005412 0.008298
-0.035800 0.007085 0.016728
0.005810 -0.005056 0.008276
0.028584 -0.007917 0.020519
0.017100 0.002637 0.002140
0.001950 -0.005159 0.008538
-0.006726 0.005353 0.022537
0.024419 -0.007571 0.004786
0.011603 -0.004536 0.023800
0.001765 -0.004352 0.003170
0.026836 -0.010840 0.019475
-0.000405 -0.005510 0.009765
0.009382 -0.003434 0.013003
0.032500 -0.005416 0.024157
-0.009057 -0.004648 0.000750
-0.039932 0.002020 0.015372
0.039138 -0.007917 0.017465
-0.002350 -0.005454 0.008270
-0.025300 -0.012945 0.017500
0.029153 -0.009592 0.014260
-0.039269 -0.012645 0.016445
0.007571 0.006622 0.022537
0.034053 -0.010312 0.007142
-0.037550 -0.014095 0.011064
0.006815 -0.005410 0.008305
-0.023816 0.003227 0.001500
0.032649 -0.011151 0.012536
-0.014816 0.003227 0.001500
0.003315 -0.005375 0.009490
0.032019 -0.009921 0.010530
-0.000067 -0.005059 0.008268
0.005405 -0.005135 0.008596
-0.024133 -0.012645 0.018500
-0.036597 -0.003430 0.022132
0.008046 -0.005000 0.008719
-0.011500 -0.011423 0.008027
-0.024133 -0.012645 0.006500
-0.024830 -0.003440 0.012879
-0.000090 -0.005233 0.009244
0.000570 -0.005174 0.009471
0.015244 -0.007667 0.004898
0.009037 0.005360 0.024995
0.033258 -0.009152 0.014619
-0.002780 -0.005349 0.009829
-0.035300 0.006545 0.005629
-0.006518 -0.004725 0.024258
0.014749 0.005170 0.007371
-0.030118 -0.007612 0.004769
0.016578 -0.011930 0.007586
0.007300 -0.005095 0.007884
-0.029682 -0.011880 0.016630
0.033826 -0.010117 0.005403
-0.042067 -0.004805 0.014017
-0.015282 -0.011930 0.016493
0.027594 -0.010312 0.018647
-0.036812 -0.012115 0.009250
-0.004439 -0.004348 0.004838
-0.015156 -0.012645 0.005775
-0.008841 0.006303 0.024826
-0.004274 -0.000108 0.001816
0.009399 -0.011930 0.011959
-0.039117 -0.001355 0.008384
0.025195 -0.003630 0.020697
-0.039824 0.002220 0.007081
0.031224 -0.012115 0.016186
0.033820 -0.011042 0.010511
0.029250 -0.003900 0.023800
0.000445 -0.005400 0.008155
0.006210 -0.005206 0.009253
0.032527 -0.010555 0.014528
0.001675 -0.005075 0.009499
0.004487 0.005272 0.004040
0.032500 -0.009656 0.011144
0.034232 -0.009797 0.013557
-0.000850 -0.005251 0.008555
-0.038534 -0.001514 0.017800
0.036382 -0.012695 0.012125
0.004365 -0.005510 0.009765
0.023110 0.004900 0.007270
-0.027000 -0.005955 0.000000
-0.038989 -0.001567 0.007085
-0.014201 -0.010701 0.015942
0.033900 -0.010282 0.007790
0.002882 -0.004381 0.003581
0.009514 -0.012995 0.006919
0.028671 -0.012995 0.013237
-0.029956 -0.007603 0.004922
-0.017596 -0.001332 0.000750
-0.024399 0.003136 0.023452
0.020553 0.003419 0.002153
0.007704 -0.005444 0.008247
0.038751 0.009860 0.005900
-0.038410 -0.000271 0.007558
-0.002360 -0.004630 0.024272
-0.008907 0.005863 0.024958
-0.039327 0.000464 0.016563
0.005100 -0.005175 0.009255
0.001767 -0.004393 0.003262
0.005195 -0.005450 0.009655
-0.020000 -0.010136 0.001701
0.004750 -0.005175 0.009255
0.024313 -0.007746 0.004753
-0.007802 -0.003630 0.003915
0.038696 0.004491 0.018565
-0.025300 -0.012645 0.007500
0.004005 -0.005216 0.008582
-0.001757 -0.005450 0.008617
0.007556 0.006652 0.021106
0.025103 -0.004903 0.012224
0.001215 -0.005530 0.009667
0.035067 -0.010282 0.007279
-0.004027 -0.000744 0.001716
-0.008617 0.006907 0.024559
-0.029207 -0.004254 0.000106
0.002045 -0.005399 0.008302
-0.000885 -0.005389 0.008290
0.007634 0.006525 0.021015
-0.001245 -0.005216 0.009208
0.039400 -0.008936 0.012994
-0.006639 -0.012059 0.013611
0.028998 -0.009542 0.010615
-0.001530 -0.005159 0.009476
-0.039858 -0.000900 0.006811
0.040119 -0.012645 0.010672
-0.038817 0.000727 0.017757
0.002777 -0.004289 0.003514
0.031737 -0.011078 0.012717
-0.009610 -0.007606 0.004838
0.026840 -0.005380 0.013123
0.035120 -0.010141 0.005381
0.004705 -0.005251 0.009235
0.035200 -0.008517 0.009100
0.025518 0.004720 0.002621
0.003685 -0.005226 0.009456
-0.027132 -0.001753 0.023061
0.003075 -0.005075 0.009499
-0.044672 0.000870 0.014518
0.033273 -0.010215 0.004776
0.007974 0.006059 0.022572
-0.038716 -0.001705 0.017583
-0.035800 0.006628 0.000745
-0.028600 -0.005466 0.000543
0.000639 -0.005069 0.009521
0.016021 -0.012645 0.017693
0.042241 -0.008067 0.009438
-0.024942 -0.003525 0.012554
-0.024957 -0.003483 0.012513
0.029233 -0.007767 0.003823
-0.021325 0.003477 0.002154
0.018746 0.002577 0.023429
0.017259 -0.000814 0.023800
-0.017596 -0.004532 0.000750
0.002700 -0.005185 0.009450
0.033160 -0.010127 0.004971
0.006900 -0.005168 0.008338
0.003360 -0.005075 0.008291
-0.038989 -0.002417 0.007084
-0.040137 -0.001036 0.017228
0.003720 -0.005085 0.009517
-0.042604 -0.004380 0.011256
0.007106 -0.005086 0.008639
0.005435 -0.005056 0.008276
-0.004338 -0.004410 0.004856
-0.027716 -0.000920 0.023193
0.042533 0.005946 0.019874
-0.012496 -0.012180 0.007198
0.005415 -0.005509 0.009756
0.002875 -0.003802 0.003301
-0.043065 -0.004204 0.012373
0.027891 -0.004278 0.013367
0.002957 -0.005400 0.008055
0.026599 -0.004345 0.010910
-0.006708 0.006506 0.022472
0.027576 -0.010812 0.017383
-0.003350 -0.002561 0.001851
0.015094 -0.007658 0.004728
-0.018363 -0.012995 0.018093
-0.007910 0.005522 0.022679
-0.013589 -0.012149 0.017242
0.030183 -0.014225 0.009425
-0.006698 0.006526 0.022600
0.002115 -0.005420 0.008155
-0.038429 -0.000615 0.017064
-0.006989 0.006676 0.021150
0.039095 0.004418 0.018548
0.001215 -0.005507 0.008039
-0.041191 0.002220 0.018190
0.014816 0.003227 0.001500
-0.008754 -0.011925 0.007939
-0.004483 -0.003630 0.004869
0.004810 -0.005081 0.008608
0.039981 -0.014225 0.014302
-0.040053 0.000138 0.007351
0.030134 -0.011042 0.011693
0.002955 -0.005153 0.009207
-0.008045 0.005848 0.022472
-0.028841 -0.007725 0.020225
0.000165 -0.005510 0.010045
0.023816 -0.012695 0.004676
0.024680 0.004666 0.007390
-0.024998 -0.011880 0.013013
-0.035800 0.006050 0.019200
-0.015449 -0.001643 0.022935
0.007682 -0.005435 0.009557
0.003775 -0.005275 0.009486
0.000645 -0.005450 0.008135
0.024680 -0.001016 0.023202
0.009205 -0.004230 0.012411
0.032500 0.004645 0.000700
0.043533 0.005945 0.008918
-0.000496 -0.003136 0.000500
-0.034469 -0.008150 0.001484
-0.043222 -0.003580 0.013458
0.023166 -0.004382 0.024306
-0.040183 0.000879 0.008054
0.006575 -0.005280 0.008302
0.017906 0.005070 0.007330
-0.002344 -0.005420 0.008239
0.033775 -0.010442 0.014708
0.015100 0.005170 0.005850
0.033799 -0.011342 0.014443
0.008010 0.006154 0.022721
0.009889 -0.003448 0.012795
0.033504 -0.009642 0.009853
-0.007994 0.005921 0.024240
0.025809 -0.004248 0.013812
0.009291 -0.004591 0.000200
-0.001245 -0.005195 0.008576
0.038775 -0.008710 0.016429
0.023816 -0.012645 0.004676
-0.002192 -0.004970 0.009820
0.032687 -0.009475 0.012742
-0.002525 -0.005490 0.009695
-0.025300 -0.012115 0.017500
-0.025300 -0.012995 0.017500
0.028133 -0.004805 0.012907
0.006945 -0.005275 0.009508
-0.035794 -0.014790 0.021555
0.022753 -0.007757 0.021285
-0.027569 0.002989 0.023446
-0.002780 -0.005034 0.007876
0.029661 -0.009592 0.013926
-0.021741 -0.000814 0.000750
-0.024663 -0.003430 0.013020
-0.001215 -0.005210 0.009452
0.025325 -0.004182 0.011919
0.026380 -0.012645 0.006432
0.009077 -0.008190 0.012500
0.024315 -0.007651 0.003613
-0.023665 -0.012180 0.012627
0.003950 0.002491 0.024927
-0.040324 0.000720 0.008542
0.022335 -0.012115 0.010096
-0.038168 -0.012945 0.007091
-0.000500 -0.005206 0.008537
0.023100 0.002637 0.022860
0.004810 -0.005081 0.008608
-0.038785 -0.000392 0.016889
0.027772 -0.004380 0.013584
0.032978 -0.011045 0.005352
0.035223 -0.008942 0.011192
-0.037209 -0.011930 0.010820
0.008140 -0.005504 0.009847
0.004643 0.006490 0.001761
-0.006461 0.005799 0.021128
0.029945 -0.007776 0.009148
-0.008005 0.006165 0.021106
0.027190 -0.004180 0.011961
0.022889 -0.007653 0.021309
0.005435 -0.005269 0.008307
0.015326 0.003386 0.024961
0.029787 -0.009642 0.013308
0.040800 -0.008087 0.009200
-0.001235 -0.005589 0.008039
0.038622 0.004500 0.006504
0.033900 -0.010119 0.007600
-0.040125 -0.002715 0.007458
-0.006481 0.005990 0.022537
0.003010 -0.005056 0.009514
0.003613 -0.002282 0.001854
0.002285 -0.005240 0.009462
-0.039305 0.000664 0.006705
-0.003245 0.003209 0.024762
0.000305 -0.005174 0.008576
-0.007597 0.005199 0.024150
0.032306 -0.011251 0.012740
0.000295 -0.005538 0.009672
0.004660 0.006512 0.001787
-0.006381 -0.004770 0.000000
0.019160 0.004860 0.006170
-0.014450 -0.001210 0.023165
-0.001677 0.005298 -0.011000
0.024343 -0.007683 0.003658
0.030500 -0.009894 0.012838
0.009992 -0.011930 0.012745
-0.038692 0.000339 0.007485
0.034902 -0.010704 0.004957
0.036015 -0.014095 0.005198
-0.039679 -0.002604 0.017985
0.005525 -0.005280 0.008302
0.017263 -0.002615 0.001895
0.006955 -0.005251 0.008555
0.022864 -0.014095 0.011497
0.022906 -0.007657 0.021228
-0.005184 0.007161 0.020600
0.033776 -0.010117 0.008196
0.031987 -0.009364 0.011834
0.008046 0.005919 0.024179
-0.001815 -0.005450 0.008155
0.018716 -0.004125 0.023800
0.037673 -0.008570 0.015816
0.007919 0.005981 0.022598
0.004015 -0.005145 0.009482
0.006945 -0.005510 0.010045
-0.020082 -0.014250 0.009119
-0.024518 -0.004725 0.024258
0.021080 0.004927 0.007315
0.031910 -0.011342 0.012500
0.033097 -0.010215 0.007533
0.018002 0.003444 0.024963
-0.035800 0.009334 0.022058
0.030995 -0.009342 0.011341
-0.036579 -0.012115 0.005870
0.006817 -0.005284 0.009507
0.038566 -0.008648 0.016656
0.001977 -0.004387 0.003370
0.027614 0.002931 0.023444
0.008392 0.003223 0.024956
-0.000165 -0.005163 0.008337
0.001695 -0.005401 0.008294
0.022535 -0.012115 0.014449
-0.023709 -0.004591 0.000200
0.008019 0.005990 0.022537
0.028764 -0.009592 0.009895
-0.002315 -0.005469 0.008273
-0.024606 -0.003469 0.012953
0.005405 -0.005174 0.009214
0.021507 -0.001253 0.000750
0.029685 -0.009642 0.012802
-0.002120 -0.005128 0.009833
0.023698 -0.001387 0.001500
-0.024133 -0.012695 0.018500
0.006925 -0.005148 0.008332
0.009614 -0.012695 0.006919
-0.041852 -0.004180 0.013843
0.023185 0.005110 0.007330
0.008040 -0.004920 0.008696
-0.041601 -0.004380 0.014097
0.038777 -0.003580 0.016118
0.024486 -0.004122 0.003683
0.027900 0.002637 0.022860
-0.020312 0.002798 0.023439
0.035258 -0.008942 0.011227
0.004522 0.005203 0.002576
-0.012741 0.002615 0.000200
-0.039256 -0.000792 0.016574
-0.042922 0.000720 0.009245
0.002024 -0.004423 0.003469
0.015128 -0.004574 0.004960
0.001565 -0.005510 0.009761
0.004760 -0.005168 0.009452
0.000733 -0.012695 0.017500
-0.004775 0.006500 0.002462
-0.009512 -0.003630 0.004855
-0.038281 0.002220 0.016743
-0.008971 0.010137 0.020190
-0.000755 -0.005251 0.009494
-0.003292 -0.003315 0.002036
0.001345 -0.005510 0.008029
0.012043 -0.014095 0.012500
-0.007872 0.006421 0.022736
-0.008669 -0.011930 0.017215
-0.000955 -0.005420 0.009755
-0.023552 -0.012945 0.018314
-0.021608 0.003223 0.024956
0.035055 -0.012695 0.015446
0.000000 -0.003264 -0.011000
0.002055 -0.005234 0.008591
-0.007920 0.007460 0.024302
0.006560 -0.005191 0.008535
-0.019390 0.004458 0.021930
0.022270 0.004764 0.007330
-0.041885 -0.004224 0.011025
0.004855 -0.005251 0.009235
0.003317 -0.005284 0.008283
-0.023989 -0.012115 0.018489
-0.006545 0.006136 0.022572
0.004385 -0.005075 0.008291
0.003370 -0.005174 0.009471
0.029352 -0.008570 0.008466
0.006945 -0.005399 0.009488
0.001695 -0.005524 0.009664
-0.006485 0.006216 0.022600
0.023460 0.004770 0.006230
-0.002700 -0.004920 0.008655
0.027425 -0.010160 0.017513
0.029328 -0.007935 0.008289
0.005860 -0.005251 0.008555
-0.020845 -0.012645 0.015018
-0.039473 -0.002536 0.008437
0.033260 -0.009368 0.012557
0.026021 -0.004190 0.013813
0.015057 -0.004648 0.000750
-0.022270 0.008546 0.011271
0.008050 0.005920 0.022450
0.002965 -0.005497 0.009741
-0.006454 0.005993 0.022736
-0.009670 -0.004236 0.024112
-0.002780 -0.005035 0.007957
-0.001421 -0.008556 -0.009987
0.009086 -0.003511 0.012332
0.033968 -0.010117 0.007097
-0.040137 -0.000636 0.007628
-0.012056 0.008856 -0.018000
-0.032932 -0.011930 0.007519
0.030417 -0.001566 0.022934
0.036553 -0.014095 0.019520
-0.001940 -0.005021 0.008106
-0.001097 -0.005400 0.008135
-0.000255 -0.005400 0.008035
-0.002563 -0.005275 0.007875
0.007711 0.007546 0.024243
-0.036717 -0.012995 0.019100
-0.038401 -0.002277 0.017252
0.004100 -0.005135 0.009465
0.039131 0.004463 0.018418
-0.030106 -0.007649 0.003734
-0.000535 -0.005200 0.008319
0.015643 0.003199 0.000000
0.032403 -0.010442 0.015048
0.007815 0.004421 0.024987
-0.024300 -0.012115 0.018500
0.000515 -0.005145 0.009482
0.028451 -0.010117 0.017457
0.013507 -0.012180 0.009490
0.032135 -0.011342 0.010342
0.015375 0.004740 0.007300
-0.002851 -0.002993 0.001810
0.001695 -0.005185 0.009470
0.027422 -0.004180 0.011410
0.037823 -0.008623 0.015645
-0.039459 -0.009823 0.020833
0.007110 -0.005090 0.008657
0.003657 -0.005400 0.008135
0.026250 -0.003900 0.000750
0.019906 -0.012945 0.007666
0.005085 -0.005194 0.008340
-0.038686 0.000720 0.021496
-0.019599 -0.014225 0.017319
-0.041120 -0.000180 0.013139
-0.038828 -0.001986 0.016830
-0.007191 0.006688 0.024221
0.007787 0.005336 0.021106
0.026150 -0.003630 0.020902
0.001610 -0.005048 0.008267
-0.024584 -0.002725 0.022954
-0.006637 0.005550 0.022585
-0.028925 -0.007596 0.020260
0.009912 -0.004130 0.012538
-0.009658 -0.007685 0.003658
-0.029064 0.002657 0.024934
0.003805 -0.005135 0.008596
0.005241 0.007133 0.020600
-0.030954 -0.011930 0.007746
0.000644 -0.012695 0.017645
-0.040679 -0.005108 0.011653
-0.007192 0.006690 0.021063
-0.038989 -0.000417 0.016684
0.035120 -0.010141 0.005381
0.016460 0.004900 0.006230
0.027048 -0.007767 0.019936
0.037695 -0.007849 0.015694
0.004495 -0.005504 0.008042
-0.024950 -0.001792 0.024615
0.008140 -0.004924 0.009817
-0.038585 -0.001840 0.016720
0.000155 -0.005251 0.008555
0.021785 0.005110 0.006170
-0.040018 -0.000772 0.008486
-0.015723 -0.012645 0.005848
0.006741 -0.001373 0.002070
-0.001700 -0.005465 0.008557
-0.002868 -0.003011 0.001831
0.003249 -0.003735 0.003362
0.015214 -0.007752 0.004777
-0.023063 0.002657 0.000000
0.020165 0.005170 0.006260
-0.039400 -0.001930 0.006960
0.015950 -0.001792 0.024615
0.002955 -0.005128 0.009185
0.007627 0.005390 0.022600
-0.002991 -0.012695 0.008485
-0.002475 -0.005540 0.009695
0.005550 -0.004500 0.024066
-0.038828 -0.000524 0.008170
-0.008798 0.005461 0.024998
-0.018762 -0.014225 0.018061
-0.001750 -0.005010 0.009525
0.000865 -0.005480 0.009655
-0.037587 -0.011534 0.005215
-0.007676 0.006592 0.024179
0.024260 0.004720 0.006172
0.009233 -0.003440 0.012925
0.033259 -0.010282 0.004745
-0.023840 -0.012645 0.018456
0.002831 -0.004281 0.003516
-0.038196 0.002220 0.006103
0.003165 -0.005400 0.008155
0.007300 -0.005010 0.009636
0.040243 -0.007767 0.006547
0.039138 0.004480 0.018305
-0.008165 0.007470 0.024309
-0.008155 0.004599 0.024990
0.012950 0.000347 0.024802
-0.036579 -0.012645 0.019130
-0.038045 -0.012430 0.020000
0.001300 -0.005048 0.009523
0.032800 -0.011251 0.012429
0.038636 0.004418 0.018664
0.005895 -0.005171 0.009472
-0.042629 -0.004182 0.013450
-0.027660 -0.001057 0.001500
0.029700 -0.009152 0.013747
0.008673 -0.001701 0.022936
0.025597 -0.004767 0.011257
0.004495 -0.005377 0.009501
0.007970 -0.005398 0.009891
0.017769 -0.004850 0.024241
0.018590 0.004740 0.007330
0.000515 -0.005509 0.008131
0.030314 -0.010742 0.012500
0.030299 -0.007767 0.007519
-0.019142 0.004312 0.020871
0.032191 -0.011042 0.010393
0.015194 -0.004490 0.004982
-0.040992 -0.004180 0.011277
0.028019 -0.004204 0.012877
0.023254 0.002577 0.023429
-0.040121 -0.004248 0.012107
0.005100 -0.005233 0.008546
0.024368 -0.007670 0.004827
0.016490 0.004930 0.007330
-0.040156 -0.000076 0.016645
-0.037348 -0.000280 0.002717
0.007319 0.005125 0.022472
0.036200 0.009859 0.020804
0.029543 -0.010117 0.018549
0.037964 -0.013143 0.020969
0.033343 -0.010542 0.009814
-0.000535 -0.005376 0.009501
-0.041744 -0.004903 0.010986
0.028418 -0.012695 0.020232
0.001660 -0.005129 0.009240
-0.028803 -0.011930 0.009135
0.004015 -0.005498 0.008049
-0.007840 0.006396 0.022669
0.014364 -0.004297 0.024101
-0.039749 -0.000299 0.007047
0.029422 -0.008710 0.008172
-0.004376 -0.000938 0.001831
0.032634 -0.011342 0.010482
-0.015659 -0.001476 0.022932
0.032314 -0.011342 0.014536
-0.024272 -0.003434 0.012963
0.031397 -0.011042 0.014744
0.006815 -0.005158 0.008314
-0.002610 -0.005488 0.009836
-0.011621 -0.004799 0.024248
-0.030177 -0.003660 0.003403
0.007760 -0.005013 0.009818
-0.039473 -0.002186 0.008437
0.003315 -0.005589 0.008039
0.001345 -0.005079 0.009520
0.031444 -0.014095 0.008797
0.034215 -0.014095 0.009053
-0.006787 -0.011880 0.009665
-0.038842 0.002173 0.016872
-0.037400 0.002220 0.017301
0.015100 0.005170 0.007110
0.035996 -0.009542 0.014385
-0.036669 -0.000280 0.001462
-0.042938 -0.004204 0.013110
0.003798 0.005519 0.024999
-0.039211 0.000658 0.016318
-0.010237 -0.011608 0.008384
0.007319 0.005130 0.022494
-0.015890 0.002773 0.002142
0.018979 -0.012945 0.017693
0.022693 -0.012695 0.013977
0.000893 0.002816 0.024941
0.033611 -0.010117 0.005454
0.030312 -0.007787 0.007618
0.028649 -0.009542 0.010082
0.014970 0.004690 0.006690
0.007480 -0.005021 0.009808
0.007089 0.006601 0.024250
-0.030108 -0.003941 0.003515
0.014973 -0.004448 0.003599
-0.041461 -0.004875 0.010958
0.006727 0.005499 0.022598
-0.039028 -0.000706 0.008629
-0.032500 -0.003580 0.019745
0.032565 -0.011128 0.011710
0.009789 -0.012945 0.017645
-0.000755 -0.005494 0.008134
-0.005888 0.008553 0.023518
0.005205 -0.005163 0.008578
0.030341 -0.008570 0.007771
0.033320 -0.010587 0.010441
0.006708 0.006506 0.022736
0.018950 -0.001792 0.024615
-0.038355 -0.010806 0.019970
0.018977 -0.012695 0.017694
0.007480 -0.005104 0.009684
0.000515 -0.005375 0.008300
0.001325 -0.005065 0.008284
0.038879 -0.007905 0.015876
0.017260 -0.000823 0.001500
0.001915 -0.005480 0.009735
0.001767 -0.004393 0.003262
0.015272 -0.007570 0.004928
-0.000535 -0.005410 0.009485
0.034689 -0.010128 0.012151
0.026008 -0.000180 0.011961
-0.028799 -0.012645 0.020059
-0.007425 0.006655 0.021044
0.030982 -0.010476 0.014116
0.029468 -0.009592 0.010200
-0.038660 0.000760 0.007712
0.022310 0.004930 0.006170
0.034612 -0.011342 0.012185
0.037637 -0.008685 0.016244
0.009491 0.003067 0.024756
-0.005550 0.003417 0.022847
-0.042937 -0.003430 0.013284
0.029944 -0.009592 0.010758
-0.027574 -0.011880 0.013352
0.032955 -0.011342 0.014793
0.034306 -0.009342 0.013090
-0.001692 -0.005032 0.009176
-0.020709 -0.001391 0.000750
-0.025300 -0.012995 0.007500
0.004110 -0.005144 0.009247
0.030609 -0.011342 0.011217
-0.010673 -0.011249 0.016800
-0.038837 0.000859 0.008526
0.014758 0.009100 0.022933
-0.039357 -0.014225 0.015991
0.000827 -0.003990 0.001687
0.035092 -0.010127 0.005401
-0.041382 -0.000180 0.013269
-0.027200 0.003515 0.022845
-0.035300 0.006743 0.020400
-0.000755 -0.005412 0.008298
0.019290 0.004860 0.007325
0.031813 -0.010742 0.014643
0.039005 0.004305 0.018659
0.004035 -0.005178 0.008339
0.015185 -0.007659 0.004882
0.025382 -0.004903 0.013412
0.007304 0.006632 0.024249
0.002955 -0.005206 0.008578
0.030276 -0.009692 0.012842
-0.009716 -0.007724 0.004838
-0.041846 -0.014900 0.010851
-0.001321 -0.001430 0.022931
0.015059 -0.004429 0.004963
0.024256 -0.007599 0.004923
0.007952 -0.005286 0.007875
0.041281 -0.008029 0.015200
0.026768 -0.010351 0.019513
0.030227 -0.001439 0.023032
-0.019127 0.004142 0.021970
-0.000185 -0.005450 0.008055
0.004825 -0.005148 0.009458
0.003445 -0.005510 0.007745
0.006485 -0.005275 0.008304
-0.014246 -0.011925 0.007939
0.038595 -0.008571 0.015603
-0.041939 -0.014900 0.013492
0.000900 -0.005175 0.009255
0.031578 -0.012695 0.008711
0.024257 0.003202 0.023454
0.034877 -0.010215 0.004988
-0.040214 -0.002391 0.008281
0.029050 0.000347 0.024802
0.007558 0.006657 0.021128
0.005895 -0.005489 0.009736
-0.029954 -0.007750 0.004803
0.028726 -0.012130 0.013205
-0.006656 -0.004264 0.023800
-0.029928 -0.007767 0.003772
0.021742 -0.000812 0.023202
0.030345 -0.008758 0.007949
-0.023336 0.002848 0.000200
0.031764 -0.009377 0.011827
0.029644 -0.009442 0.014246
0.020343 0.003253 0.002150
-0.037021 -0.014250 0.006274
0.005765 -0.005399 0.009488
0.007250 0.004249 0.024956
0.005415 -0.005079 0.008269
0.033419 -0.009377 0.012113
0.022760 0.004900 0.007270
0.004460 -0.005251 0.008555
0.006890 -0.005189 0.008320
0.029644 -0.010742 0.018141
0.019307 -0.011930 0.007838
-0.039615 -0.000198 0.008408
0.038809 -0.008658 0.016448
0.025520 -0.004204 0.013497
-0.000895 -0.005184 0.008575
0.003515 -0.005420 0.009755
0.006850 -0.005233 0.009244
0.021736 0.002642 0.024735
0.014250 -0.003900 0.023800
0.032643 -0.011251 0.012227
-0.024741 -0.012645 0.018397
0.033227 0.004645 0.000722
-0.030692 -0.012180 0.007838
-0.039811 0.000183 0.017916
0.000272 -0.003665 0.000000
0.030600 -0.009392 0.012500
-0.000775 -0.005048 0.008267
0.004855 -0.005173 0.009214
0.008050 0.002491 0.024927
0.039737 -0.012695 0.015499
-0.004335 0.005065 0.004382
0.008997 -0.003431 0.012671
-0.017726 -0.001398 0.023147
-0.041009 0.000720 0.019342
-0.039959 -0.002368 0.018129
-0.006518 0.005680 0.024221
0.001935 -0.005048 0.009523
0.015072 -0.007570 0.004728
0.005195 -0.005215 0.008317
0.032500 0.004645 0.023491
-0.002356 -0.005449 0.008276
0.033272 -0.009790 0.014376
0.001695 -0.005450 0.009655
-0.025007 -0.012115 0.018207
0.032343 -0.011121 0.012238
0.008483 0.003043 0.023449
-0.006469 0.005770 0.022721
0.014971 -0.004498 0.003716
-0.002689 -0.004920 0.008724
0.015716 -0.004125 0.023800
0.008550 -0.004500 0.024066
0.009700 -0.012115 0.017500
-0.039088 -0.009645 0.019614
-0.001550 -0.005159 0.008538
0.024554 -0.003630 0.021480
-0.004835 0.006344 0.001850
0.031474 -0.010442 0.010498
0.008680 -0.005790 0.010895
-0.041520 -0.000280 0.019794
-0.035587 -0.000280 0.002027
0.001235 -0.005056 0.008276
-0.027859 -0.014225 0.015370
-0.042448 -0.013143 0.014118
0.030884 -0.009709 0.014066
0.005065 -0.005514 0.009660
0.004015 -0.005450 0.008055
0.004728 0.006532 0.002459
0.027566 0.002992 0.023447
0.031242 -0.007917 0.018250
-0.040345 -0.000858 0.008027
0.002350 -0.005151 0.008333
0.007720 -0.005426 0.008259
-0.032081 -0.003430 0.003642
-0.025300 -0.012995 0.017500
-0.040463 0.000720 0.016642
0.009893 0.002816 0.024941
0.037930 -0.007905 0.016693
0.005435 -0.005056 0.009514
0.039210 0.004418 0.006727
-0.008039 0.007426 0.022600
0.043958 0.003666 0.013484
-0.001475 -0.005048 0.008267
0.011259 0.002615 0.000200
0.006581 0.005859 0.022598
-0.039185 -0.000398 0.016592
0.000275 -0.005148 0.009458
-0.038761 -0.012115 0.017209
-0.038645 -0.000984 0.007045
0.012750 -0.004483 0.000000
0.002536 -0.004322 0.003493
0.001887 -0.004410 0.003366
-0.003397 -0.004536 0.023800
0.025627 -0.004875 0.013705
-0.003664 -0.001048 0.023800
0.005160 -0.005116 0.009230
0.006069 -0.004647 0.024039
0.003095 -0.005497 0.008049
-0.006949 0.005199 0.024208
-0.015384 -0.012172 0.016089
-0.021747 0.002571 0.024731
0.033062 -0.009367 0.013228
-0.023340 0.002857 0.001500
0.038762 -0.008758 0.016048
0.026784 -0.010215 0.018154
0.006540 -0.005189 0.009470
-0.043151 -0.003580 0.014063
0.008021 0.005920 0.022679
0.005100 -0.005129 0.008550
-0.007448 0.006666 0.022537
0.017060 0.004930 0.007330
0.028541 -0.007767 0.005070
-0.038942 -0.001100 0.008589
0.000305 -0.005152 0.009207
0.006485 -0.005265 0.008311
0.026847 -0.010119 0.019159
0.000240 -0.005145 0.008308
-0.001968 -0.014250 0.012227
0.002045 -0.005240 0.008305
-0.039327 -0.000574 0.008437
0.027278 -0.010141 0.017656
0.006746 0.005372 0.024240
-0.041825 -0.001282 0.020313
0.008140 -0.005506 0.009850
-0.007649 0.006548 0.024240
-0.039351 -0.012180 0.007764
-0.011596 0.003132 0.000200
0.007110 -0.005010 0.009525
0.000550 -0.005159 0.008538
0.034788 -0.011342 0.012047
0.006945 -0.005251 0.008296
0.006815 -0.005510 0.010045
0.000865 -0.005507 0.009752
-0.041793 -0.005106 0.011259
0.003100 0.028556 -0.013900
0.027583 -0.010185 0.020202
0.032643 -0.011281 0.012440
-0.015196 0.003516 0.002155
0.028133 -0.004805 0.012093
-0.024757 -0.002164 0.023118
0.002885 -0.004245 0.003513
-0.038825 0.001020 0.016482
-0.001190 -0.005220 0.009454
0.001526 -0.004419 0.003025
0.003760 -0.005095 0.008582
0.009796 -0.003496 0.012160
0.003515 -0.005400 0.008155
0.032232 -0.011042 0.010422
-0.028843 -0.007727 0.021262
-0.003461 0.006433 -0.004444
0.014211 -0.014095 0.008147
-0.002356 -0.005444 0.008263
-0.042042 -0.004224 0.013936
0.018868 -0.012180 0.017309
-0.021641 -0.004629 0.024272
0.005415 -0.005214 0.009473
0.006815 -0.005480 0.009655
-0.039211 -0.001392 0.016318
-0.025007 -0.012995 0.018207
0.021937 -0.004056 0.000000
-0.010604 -0.011930 0.007074
0.029202 -0.009592 0.015144
0.032607 -0.010215 0.005333
-0.038692 0.000301 0.007915
0.030292 -0.010442 0.012068
0.032570 -0.009428 0.012950
-0.002120 -0.005118 0.009674
0.003793 -0.005284 0.008283
0.013455 -0.011930 0.009561
-0.038692 -0.000899 0.017515
0.007312 0.006634 0.022585
-0.007448 0.006666 0.022537
-0.001180 -0.005145 0.009482
0.030290 -0.003630 0.022941
-0.034143 0.005047 0.000112
0.007875 -0.004920 0.009449
0.034690 -0.010185 0.007512
-0.028190 -0.012945 0.015753
-0.039211 -0.001568 0.018282
0.039219 -0.011956 0.006086
-0.029509 0.003067 0.024756
-0.042310 -0.004729 0.018982
-0.003677 -0.008190 0.012500
0.030557 -0.011342 0.013799
-0.019440 0.004496 0.021766
0.030257 0.003202 0.023454
0.037599 -0.008629 0.016137
0.007850 0.005460 0.021044
-0.004406 0.005733 0.001713
0.000305 -0.005162 0.009211
-0.038663 -0.000473 0.007628
0.000995 -0.005509 0.008131
0.033477 -0.010609 0.010472
0.008915 0.006082 0.024875
-0.002744 -0.003785 0.003013
-0.038410 0.000529 0.007558
0.032645 -0.011342 0.013072
0.005875 -0.005065 0.009506
0.027949 -0.010117 0.020143
-0.001490 -0.005129 0.009240
-0.002575 -0.005277 0.007875
0.037461 -0.010117 0.016005
0.007682 0.006617 0.024250
0.000689 -0.004196 0.023800
0.005765 -0.005171 0.009472
-0.038410 -0.000271 0.017158
0.037760 -0.008765 0.016137
0.012654 0.002867 0.023442
-0.024777 -0.003457 0.012113
-0.007935 0.006332 0.022736
0.026291 0.002743 0.001500
-0.030027 -0.003694 0.003261
0.038804 0.004362 0.018697
0.006575 -0.005240 0.008328
-0.035604 0.000764 0.000566
-0.023431 -0.004389 0.023800
0.039180 -0.012995 0.008406
-0.010716 -0.011378 0.016580
-0.039579 0.002020 0.019292
0.032468 -0.010351 0.006913
0.007824 0.006382 0.022572
0.023360 0.004860 0.006175
-0.015811 0.003028 0.022854
0.042083 -0.007960 0.009011
0.004145 -0.005509 0.008131
0.038703 -0.008731 0.015781
-0.038989 -0.001693 0.008316
-0.024800 -0.011930 0.013050
-0.023644 -0.011930 0.012459
-0.000460 -0.005189 0.009470
-0.002400 -0.004920 0.008005
-0.021272 0.008546 0.012731
0.006485 -0.005240 0.008328
0.002615 -0.005494 0.008052
-0.002793 0.028556 -0.008555
0.026599 -0.004311 0.010924
0.029382 -0.010665 0.017722
-0.032500 0.005945 0.000900
-0.015750 -0.001772 0.024416
-0.004800 0.006404 0.001792
0.034551 -0.009152 0.013425
-0.038811 0.002220 0.007235
0.000940 -0.005159 0.008314
-0.007085 0.006600 0.022650
-0.030750 0.002500 0.023426
-0.027569 0.002989 0.023446
0.028760 -0.012115 0.005945
0.015830 0.004764 0.006170
-0.001200 -0.005191 0.008535
0.005415 -0.005510 0.010045
-0.040345 -0.000902 0.007373
0.036068 0.001347 0.022763
0.037807 -0.007803 0.016741
-0.005336 -0.004248 0.000200
0.006311 0.003182 0.024760
0.003464 0.005734 0.020600
0.005065 -0.005497 0.009656
0.000645 -0.005510 0.009761
0.030642 -0.008629 0.008448
0.035032 -0.009592 0.015332
0.029375 -0.008658 0.008470
0.021400 0.005856 -0.017000
0.002126 -0.004390 0.003437
0.015950 0.002500 0.000000
0.024743 0.004639 0.006169
-0.007308 0.005222 0.024250
-0.000545 -0.005195 0.008576
-0.001455 -0.005259 0.009500
0.015640 -0.004630 0.024272
0.024090 0.004770 0.006230
0.001416 -0.002941 0.000000
-0.007868 0.006121 0.021000
-0.034966 0.000870 0.024590
0.034273 -0.009642 0.010293
-0.001771 -0.005461 0.008636
0.000741 0.003087 0.009500
0.002045 -0.005538 0.008118
-0.007875 0.005544 0.022654
-0.039615 -0.002362 0.006992
0.001689 -0.005335 0.008286
0.004475 -0.005226 0.009456
0.001005 -0.005135 0.009194
-0.001717 -0.005437 0.008585
0.032438 -0.009152 0.014749
0.014987 -0.004432 0.003574
-0.013548 -0.012111 0.007851
0.037780 -0.007876 0.015627
-0.018560 -0.001567 0.022934
0.035262 -0.010542 0.013046
0.042807 0.004645 0.016317
0.037871 -0.007767 0.015395
-0.040372 -0.000064 0.007936
0.031967 -0.009429 0.013513
0.034026 -0.010117 0.004840
0.009937 -0.004084 0.024347
-0.002780 -0.005577 0.009813
-0.037092 -0.012695 0.015342
-0.032500 0.005945 0.024100
0.030873 -0.009692 0.014054
-0.002514 -0.004920 0.008333
0.007515 -0.005248 0.007955
-0.006519 0.005780 0.022660
-0.007706 0.006413 0.022598
-0.026943 -0.001448 0.023800
0.008140 -0.005488 0.009836
-0.017110 -0.000997 0.022924
0.016434 0.004482 0.021884
0.001345 -0.005590 0.008025
0.027324 -0.005929 0.000000
0.030978 -0.011342 0.013832
-0.011140 -0.001127 0.022926
-0.021750 0.002500 0.023426
0.004475 -0.005240 0.009462
0.008008 0.005919 0.024231
-0.005827 0.003230 0.000200
0.042202 -0.013143 0.015229
-0.000755 -0.005573 0.009706
0.012057 -0.004648 0.000750
0.008952 -0.011880 0.012449
-0.017336 -0.004248 0.000200
-0.040193 -0.004875 0.011857
0.014840 0.005170 0.006600
0.038362 0.004480 0.006695
0.000625 -0.005210 0.008338
0.019465 0.005110 0.005850
-0.025348 -0.011930 0.012551
-0.001530 -0.005189 0.008320
0.024067 0.003535 0.022845
0.037840 -0.008700 0.016589
0.028638 -0.010665 0.020339
0.038301 0.004362 0.018451
-0.020250 -0.000700 0.023800
0.039059 0.003670 0.006377
-0.028185 -0.004604 0.001607
-0.008025 0.005771 0.022706
0.002509 0.006015 0.023600
-0.001721 -0.012995 0.013359
0.035566 -0.012945 0.014910
0.014740 0.004666 0.006160
0.029575 -0.008767 0.008517
0.007108 -0.005428 0.008620
0.006488 0.006039 0.024221
0.029718 -0.010779 0.019203
0.038768 -0.007767 0.005011
-0.010720 -0.011662 0.008195
-0.023144 -0.012695 0.017645
0.009514 0.003047 0.023449
-0.037587 -0.011924 0.005917
-0.008714 -0.011386 0.015956
-0.006482 0.006145 0.024150
0.038484 0.004463 0.006446
0.014810 0.004639 0.006130
0.033220 -0.006117 0.005779
-0.002224 -0.005244 0.009835
-0.012664 -0.011201 0.016718
-0.027747 0.002571 0.024731
-0.024741 -0.012645 0.006603
0.002405 -0.005234 0.009199
0.029922 -0.010542 0.011369
0.032849 -0.014095 0.008766
-0.039271 -0.012645 0.016443
-0.007056 0.002856 -0.018000
0.032874 -0.010442 0.014718
0.000975 -0.005269 0.009483
-0.008005 0.005688 0.022706
-0.003798 -0.001477 -0.005000
0.028994 0.003283 0.001543
0.004385 -0.005335 0.008300
-0.039305 -0.001736 0.016305
0.026847 -0.010119 0.018441
0.007300 -0.005010 0.007970
-0.009677 -0.003874 0.003444
0.037023 -0.014225 0.006274
0.001300 -0.005185 0.008340
-0.043303 -0.005347 0.012780
-0.039972 -0.001474 0.016830
0.026119 -0.012695 0.018568
-0.009291 0.003191 0.000200
0.015491 0.003067 0.024756
0.022048 0.008546 0.013666
0.024741 -0.004014 0.000200
0.007724 -0.005426 0.008277
0.014345 0.002865 0.023441
-0.040155 0.000416 0.008355
-0.003167 -0.003728 0.003414
-0.009581 -0.007580 0.004786
0.003245 -0.005420 0.008155
0.000975 -0.005253 0.008320
-0.000535 -0.005558 0.009687
0.032797 -0.009475 0.012429
-0.003872 -0.011190 0.011126
0.006925 -0.005269 0.009483
-0.008245 -0.011884 0.008463
0.029400 -0.009442 0.014100
-0.005125 -0.012995 0.006606
0.008140 -0.005000 0.009695
-0.043185 -0.004345 0.012362
-0.030119 -0.007588 0.003716
0.038838 -0.012645 0.017106
-0.007044 0.002416 -0.017000
0.028857 -0.008942 0.010153
0.030080 -0.007803 0.009089
0.031260 -0.009798 0.010663
0.003362 0.005575 0.020600
0.015965 0.005110 0.007330
-0.002730 -0.005000 0.008745
0.020083 -0.011880 0.016780
0.022397 0.006951 -0.018000
-0.040018 -0.000372 0.008486
0.031821 -0.009367 0.011880
-0.000165 -0.005253 0.008320
-0.001455 -0.005228 0.008311
0.033342 -0.009342 0.014418
0.038769 -0.007964 0.016563
0.009689 -0.012645 0.007355
0.043441 0.001796 0.016883
0.025322 -0.004414 0.011536
0.003685 -0.005275 0.009486
-0.039253 0.000879 0.008689
0.032547 -0.009535 0.012438
0.028849 -0.009592 0.009834
-0.002670 -0.012945 0.016040
0.006697 0.006498 0.022450
0.002998 -0.003594 0.003002
0.035378 0.004645 0.001056
0.038275 0.004362 0.018386
0.019452 -0.012115 0.007465
-0.002670 -0.012645 0.016040
-0.001565 -0.005210 0.009452
-0.002496 -0.005000 0.008306
0.000865 -0.005171 0.009472
0.009742 -0.000812 0.023202
-0.008057 -0.011201 0.010227
-0.036550 0.000570 0.023583
0.032558 -0.009451 0.012124
0.008217 0.004402 0.024885
0.034669 -0.010442 0.013098
0.040489 0.009099 0.005794
0.009614 -0.012695 0.018081
-0.035300 0.005918 0.019211
0.026107 0.002817 0.024941
-0.012036 0.003249 0.024763
-0.021453 -0.001640 0.002065
0.016638 0.004458 0.021898
-0.001750 -0.005010 0.008265
0.012878 -0.014225 0.010711
-0.040084 -0.002305 0.007417
-0.018194 -0.014250 0.017851
0.034763 -0.012645 0.015677
0.009407 -0.003430 0.011963
0.037574 0.004645 0.022821
0.023320 0.004930 0.006170
0.005895 -0.005171 0.008318
0.038355 -0.014095 0.017492
0.024680 0.004620 0.007344
0.034512 -0.010117 0.008104
0.019710 -0.014250 0.008065
0.003050 -0.005220 0.008336
-0.041601 -0.004767 0.014097
-0.039589 -0.000168 0.016318
0.002300 -0.005104 0.008570
-0.038401 -0.001027 0.017252
0.032500 -0.009364 0.011659
-0.040345 0.000342 0.008027
0.021184 -0.011930 0.015881
0.024735 0.004681 0.007378
0.005408 -0.001160 0.001500
0.004726 0.006512 0.001820
-0.038644 -0.001876 0.017955
0.005415 -0.005501 0.009744
0.000795 -0.005420 0.008035
0.014742 0.004681 0.006144
0.005765 -0.005240 0.008305
0.033661 -0.012995 0.019650
0.019120 0.004900 0.006175
0.038863 -0.008685 0.016030
0.027423 -0.004767 0.011132
0.008140 -0.005510 0.009865
0.004750 -0.005129 0.008550
-0.017550 -0.004500 0.024066
-0.012404 -0.004532 0.000750
0.032500 0.005646 0.024300
-0.006404 0.003132 0.000200
0.006952 0.005269 0.022585
-0.007234 -0.011662 0.013473
-0.007902 0.005576 0.021028
0.030046 -0.007935 0.007664
0.003759 -0.002033 0.001850
-0.023558 0.006158 -0.018000
0.029349 -0.008629 0.008349
0.004581 0.003670 0.002710
0.024349 -0.011880 0.007764
-0.000755 -0.005501 0.009744
0.035492 -0.009642 0.011115
-0.026596 -0.004532 0.000200
0.028662 -0.009592 0.015085
0.005850 -0.005168 0.009452
0.006115 -0.005240 0.008305
0.024233 0.003421 0.000000
0.032610 -0.011208 0.012053
0.002482 -0.004725 0.024258
0.029617 -0.012695 0.005052
0.032645 -0.011342 0.013072
0.027000 -0.005976 0.000002
0.025735 0.005143 0.003380
-0.042031 -0.014833 0.013776
-0.007765 0.006477 0.022669
0.007706 -0.005440 0.007955
-0.040325 -0.002405 0.008080
-0.014750 -0.011930 0.016806
0.001950 -0.005233 0.009244
0.032088 -0.010724 0.014712
0.030472 -0.010118 0.012500
0.015715 0.002725 0.023436
0.022335 -0.012695 0.010096
0.009973 -0.003457 0.012443
0.032670 -0.009498 0.012655
-0.019112 0.004262 0.020863
0.020318 -0.011880 0.016630
0.005065 -0.005450 0.009735
0.002039 -0.005069 0.009521
0.034505 -0.009987 0.012195
0.004417 -0.000721 0.001827
-0.000075 -0.005265 0.009479
-0.041793 -0.005106 0.011259
-0.038764 -0.012945 0.007792
0.006815 -0.005259 0.008290
0.044027 0.007282 0.015499
0.037934 -0.008751 0.015723
0.029848 -0.008658 0.008958
0.003685 -0.005075 0.008291
-0.007235 -0.011201 0.011527
-0.024918 -0.003496 0.012331
0.004855 -0.005186 0.008575
-0.027741 0.002615 0.000200
0.039965 -0.005767 0.006180
0.034201 -0.010704 0.007768
0.028914 -0.009552 0.010032
-0.038828 -0.000924 0.017770
0.006434 0.005844 0.022600
-0.005071 0.002273 -0.011000
0.033090 -0.009528 0.013620
0.035589 -0.009152 0.011261
0.042012 -0.007459 0.008630
-0.016493 -0.011849 0.011359
0.029535 -0.009442 0.014152
0.003538 0.006419 0.024789
-0.007431 0.005160 0.024208
-0.000000 -0.014250 0.020195
0.033332 -0.011275 0.005647
-0.035800 0.006545 0.005629
0.004349 0.005646 0.000000
0.021173 0.003230 0.000200
0.038946 -0.007776 0.015716
-0.023133 -0.012115 0.007500
0.007141 -0.005468 0.008609
-0.038410 -0.001089 0.017443
0.028353 -0.010312 0.019406
-0.002350 -0.005425 0.009545
0.033395 -0.009367 0.012287
0.022883 -0.012995 0.019948
0.026380 -0.012645 0.006432
0.003805 -0.005216 0.008582
0.009700 -0.012995 0.007500
0.000995 -0.005586 0.009736
-0.007142 0.005127 0.022750
-0.019050 -0.014225 0.017160
0.003293 0.005465 0.022600
-0.038989 -0.001617 0.016684
0.038266 0.010054 0.006411
0.032396 -0.010542 0.009687
0.038573 0.004498 0.006493
0.028958 -0.010141 0.020059
0.002965 -0.005498 0.008049
0.020520 0.004764 0.006170
0.007591 -0.005239 0.007955
-0.002680 -0.005000 0.008690
0.040171 -0.014225 0.011891
-0.018299 -0.014225 0.006621
0.039802 -0.014095 0.016017
0.035173 -0.009592 0.010956
0.006127 -0.005059 0.009522
0.002737 0.003202 0.023454
-0.040016 -0.000668 0.007289
-0.039858 -0.002100 0.006811
-0.002107 -0.014250 0.013861
0.038628 -0.008571 0.016663
-0.030085 -0.003729 0.003344
0.034578 -0.011042 0.012232
-0.011497 -0.011930 0.007000
0.029255 -0.007787 0.008581
0.033062 -0.009368 0.011984
0.032898 -0.010704 0.004957
0.023435 0.006435 -0.017000
-0.015233 -0.004821 0.000000
-0.007364 0.006712 0.021150
0.020664 -0.012995 0.008310
0.023856 0.005070 0.006260
0.012500 -0.011930 0.012500
0.030300 -0.011342 0.012100
-0.017827 0.003230 0.000200
-0.000755 -0.005079 0.009520
-0.035344 -0.012945 0.017089
0.006225 -0.005226 0.008334
0.011482 -0.004725 0.024258
0.005875 -0.005163 0.008337
0.034050 0.010135 0.020030
-0.002231 -0.005239 0.007955
0.027008 -0.010127 0.019599
0.038720 -0.007876 0.015627
-0.002525 -0.005000 0.008070
0.036516 -0.014095 0.019064
0.003805 -0.005234 0.009199
0.002395 -0.005480 0.009735
0.007760 -0.004936 0.007943
0.014769 -0.004686 0.002748
-0.002610 -0.005510 0.010045
-0.039924 0.000570 0.017824
-0.039117 -0.001155 0.016616
0.024324 -0.003630 0.003050
-0.032240 -0.003430 0.021005
-0.002780 -0.005043 0.009834
