-0.018364 0.093228 0.038757
-0.022995 0.094503 -0.006714
0.001457 -0.096990 -0.032574
-0.016653 -0.072059 -0.026556
-0.001537 -0.097816 -0.009905
0.018382 0.028992 -0.019003
-0.028581 0.042404 -0.024380
-0.028619 0.041062 -0.019029
0.025800 0.035462 -0.025937
0.000514 -0.098225 -0.027549
-0.016621 0.097632 0.039175
-0.001075 -0.097233 -0.031467
0.028216 0.002522 -0.020027
-0.017127 -0.089973 0.041910
-0.000003 -0.095503 -0.007438
0.005776 -0.098554 0.038134
0.020371 0.037464 -0.012889
0.017452 -0.070221 0.003457
0.018689 0.096664 0.034848
0.003997 -0.075659 -0.028215
-0.016973 0.100788 0.034214
-0.004003 -0.071311 -0.028446
-0.014534 -0.084236 -0.025112
0.014026 -0.092733 -0.012261
0.014973 -0.075243 -0.027692
0.016463 0.095366 0.042103
-0.015257 0.072622 -0.001819
0.022478 0.095373 -0.008617
-0.000003 -0.096920 0.040850
0.015252 0.070144 0.006414
0.017316 -0.094871 0.035029
-0.020950 0.089822 -0.022186
0.013376 0.102013 0.035216
-0.012851 0.009085 -0.022527
-0.013950 -0.093265 0.042897
-0.023161 0.091914 -0.017883
-0.017719 0.070266 0.006750
-0.014142 -0.085598 0.045710
-0.031123 -0.003347 -0.019027
-0.017928 0.072116 -0.007652
0.014713 -0.095921 0.004555
-0.015258 0.070311 -0.007782
-0.020046 0.096576 0.026888
0.016058 0.028884 -0.019023
0.016725 -0.096685 0.034157
0.017192 0.030090 -0.026973
-0.019397 0.048926 -0.011996
-0.003800 -0.100547 -0.029046
0.010973 0.031765 -0.026833
-0.016469 0.095366 0.042103
-0.016256 -0.078444 0.044627
0.015750 -0.085151 0.045096
0.025940 0.035035 -0.024385
-0.016404 0.093659 0.043793
0.008535 0.032551 -0.019027
0.016579 0.029057 -0.011930
-0.026261 0.037097 -0.027101
-0.015258 0.070144 0.006414
0.015252 0.073580 0.003207
0.020326 0.084409 0.002715
-0.014142 -0.085598 0.045710
-0.001899 -0.095399 -0.000959
0.022054 0.071253 -0.015061
0.014524 -0.098015 0.021958
0.014489 0.007918 -0.020027
0.015855 0.022116 -0.020025
0.006976 0.101589 0.038667
0.016725 -0.096685 0.034157
-0.017345 -0.070308 0.002739
0.016922 0.087465 0.044018
-0.004003 -0.086258 -0.024158
-0.001780 -0.095159 -0.005422
0.025490 0.037896 -0.027790
-0.017743 0.067709 -0.009273
-0.000003 -0.043312 -0.034474
-0.016323 -0.083420 -0.024035
0.026255 0.037097 -0.027101
0.014952 -0.002055 0.045461
0.003997 -0.087684 -0.022800
-0.003885 -0.098207 -0.033408
-0.012603 -0.034271 -0.014397
0.014484 -0.098347 0.034865
0.005026 -0.098120 0.038991
0.003206 -0.099904 -0.008977
0.022098 0.003364 -0.016027
-0.024331 0.090051 -0.016667
-0.015989 0.029408 -0.010707
0.028696 0.014735 -0.013527
0.024916 -0.003850 -0.012527
0.028910 0.014252 -0.019027
0.024605 0.034292 -0.024379
0.014897 -0.028037 -0.028008
-0.016208 -0.025906 -0.011711
0.021593 0.096686 -0.005159
0.019634 0.098863 0.002890
0.016929 0.028865 -0.026721
-0.022484 0.095373 -0.008617
-0.004003 -0.084761 -0.025283
0.017168 -0.091570 -0.006110
-0.004700 0.032935 -0.019027
0.017782 0.072674 0.011262
-0.014516 0.004603 -0.022527
-0.000003 -0.065312 0.045973
-0.015003 0.029943 -0.010942
0.017513 0.068408 -0.008940
-0.021665 0.097032 0.000666
-0.017307 0.045001 0.042917
0.022726 0.061268 -0.015301
0.013941 -0.098168 0.036181
-0.019205 0.099734 0.026676
-0.022506 0.003884 -0.016027
-0.004003 -0.089210 -0.020875
0.022297 0.090596 -0.020904
0.014513 -0.098487 0.032494
0.003997 -0.090856 -0.018041
0.002309 -0.101137 -0.027860
-0.000003 0.091720 -0.020654
0.015287 -0.097093 0.014984
0.017440 0.024791 -0.009050
0.015329 -0.092303 0.042922
-0.027990 0.051026 -0.019027
0.027567 0.014972 -0.012527
0.020032 0.078104 -0.007929
-0.015316 0.031453 -0.028224
-0.016872 0.031406 -0.027708
0.010555 0.068432 0.045789
0.018063 0.030492 -0.010623
0.015868 0.093363 0.044552
-0.020768 0.032420 -0.016025
-0.017322 -0.094871 0.035029
0.003997 -0.071311 -0.028446
0.026157 0.007128 -0.016027
-0.027237 0.036212 -0.019035
0.016317 -0.083420 -0.024035
-0.014586 -0.032615 0.045587
0.002041 -0.101057 -0.027004
0.015855 0.022116 -0.020025
0.031117 -0.003347 -0.019027
0.018124 0.037566 -0.010274
0.003997 -0.087684 -0.022800
0.022671 0.022241 -0.012527
-0.015534 0.029378 -0.012005
-0.017321 -0.084436 0.043186
-0.018244 -0.090199 0.034450
0.020717 0.024210 -0.020027
0.018876 0.022140 -0.013527
0.025828 -0.001511 -0.016027
-0.015265 0.029812 -0.019027
-0.021493 0.079220 -0.010531
0.014136 -0.085598 0.045710
-0.000003 -0.098142 -0.013138
0.019177 0.098264 -0.002007
-0.007186 0.014636 -0.022527
-0.015941 -0.091764 -0.012205
0.025270 0.082568 -0.014556
-0.016391 0.083626 0.044489
-0.018703 0.070710 -0.010934
-0.014238 -0.078056 -0.027562
-0.018448 0.072713 -0.009244
-0.020377 0.037464 -0.012889
-0.014810 -0.091445 0.044408
0.011487 0.067229 0.038372
-0.016899 -0.025488 -0.026199
0.016983 -0.093470 0.001601
0.017710 0.071591 0.006321
-0.005812 -0.031325 -0.028426
-0.001982 -0.099765 -0.012725
0.019539 0.033659 -0.027366
0.017853 -0.024867 -0.012230
0.017514 -0.095391 0.024014
-0.012546 -0.098364 0.036800
0.018542 0.082818 0.008638
-0.004003 -0.043382 -0.028457
-0.010834 -0.064906 0.045784
-0.014958 -0.002055 0.045461
0.012230 -0.090097 0.045737
-0.015534 0.029378 -0.012005
-0.005603 0.033162 -0.019027
0.024501 0.086428 -0.009652
0.001450 -0.094860 -0.005772
0.010351 -0.010212 -0.020027
-0.025868 0.076636 -0.025443
0.024325 0.090051 -0.016667
0.017676 0.072527 0.005624
-0.019446 0.001761 -0.016027
-0.018866 0.032381 -0.026911
-0.019695 0.031779 -0.024415
0.013070 0.010585 -0.021513
-0.001870 -0.098087 -0.031870
0.017093 -0.090070 -0.011746
-0.014963 -0.092601 -0.011631
0.019726 0.032422 -0.026065
0.013944 -0.093265 0.042897
0.014791 -0.033276 -0.024810
-0.029659 0.004802 -0.016027
-0.003963 -0.096403 -0.004954
-0.021767 0.092773 -0.018122
-0.014221 -0.090682 0.045192
-0.017743 0.067709 -0.009273
-0.017274 0.095747 0.040161
-0.027990 0.051026 -0.019027
0.020953 0.019726 -0.020025
-0.015170 0.101669 0.034927
0.018247 -0.071905 -0.018845
0.021882 -0.019637 -0.012527
-0.003310 -0.100873 -0.029165
-0.020196 0.095756 -0.012454
0.017350 0.090056 0.043282
0.026422 0.073188 -0.019012
0.022158 0.003464 -0.020027
-0.021848 0.073611 -0.014415
-0.014963 -0.092601 -0.011631
-0.017804 -0.076075 0.006022
0.015404 0.029736 -0.017659
0.011449 -0.064125 0.045773
-0.000666 -0.094864 -0.034453
-0.027775 0.038854 -0.026244
0.015252 -0.070285 0.002662
-0.025508 0.082265 -0.023221
0.023709 0.082687 -0.025965
0.002210 -0.095554 -0.003280
0.018459 0.100595 0.027733
-0.024921 0.007226 -0.012527
0.022421 0.084953 -0.025484
-0.025011 0.034636 -0.025222
0.015707 0.029566 -0.011124
0.018257 0.082749 0.024040
-0.017859 -0.024867 -0.012230
-0.016118 -0.086899 -0.021365
0.001971 -0.097192 -0.034090
-0.000003 0.093931 0.045953
-0.019717 0.031592 -0.018742
-0.013750 -0.089609 -0.019910
0.023243 0.078162 -0.027554
-0.023128 0.093834 -0.012613
-0.003963 -0.098863 -0.032622
-0.018126 0.081034 0.008570
-0.012434 -0.091152 0.045420
-0.015258 0.071007 0.006208
0.015740 -0.026171 -0.018906
0.024002 0.035890 -0.027415
0.015750 -0.085151 0.045096
0.013841 0.101726 0.036065
-0.016096 0.020427 -0.011607
0.017708 -0.088794 -0.005222
0.013917 -0.091701 -0.015450
-0.002024 -0.100946 -0.013479
0.015300 0.017076 -0.020025
-0.021086 0.035508 -0.013810
-0.016862 -0.073879 0.043880
-0.010233 -0.065126 0.038394
0.029654 -0.001426 -0.016027
-0.001770 -0.097102 -0.007859
-0.000003 0.101836 0.038683
-0.000003 0.102258 0.037436
-0.020076 0.097340 -0.006214
-0.022746 0.041205 -0.014846
0.015750 -0.085151 0.045096
0.023144 0.089105 -0.021880
0.008535 0.032551 -0.019027
-0.018388 0.028992 -0.019003
-0.021468 0.005953 -0.012527
0.027654 0.036873 -0.024517
-0.017513 -0.089142 0.041067
-0.021754 0.001284 -0.020027
-0.000003 -0.096742 0.007130
-0.003800 -0.100547 -0.029046
0.017301 0.045001 0.042917
0.015766 -0.097932 0.028574
0.010329 0.094899 0.045478
0.017302 0.028607 -0.012192
0.018697 0.070710 -0.010934
0.026196 0.075662 -0.018661
-0.016867 -0.095322 0.011765
0.003997 -0.087684 -0.022800
0.022671 0.022241 -0.012527
-0.017256 -0.025266 -0.025292
-0.015552 0.014017 0.045165
0.017708 -0.088794 -0.005222
0.016396 0.089676 0.044665
-0.024507 0.086428 -0.009652
0.021233 0.080634 -0.008279
0.027203 0.036178 -0.024221
-0.024056 -0.003817 -0.016027
-0.015213 -0.025874 -0.010660
-0.016973 0.100788 0.034214
-0.003969 -0.098939 -0.008428
0.017738 -0.070694 0.001978
0.003600 -0.100914 -0.012825
-0.017314 -0.094257 0.010523
0.023769 0.007074 -0.016027
0.016922 0.087465 0.044018
0.019658 0.034343 -0.012551
-0.020926 0.092333 -0.019220
0.004963 -0.029929 -0.025945
-0.015504 -0.094164 0.040361
-0.017595 0.028418 -0.025005
-0.017601 -0.069846 0.004673
0.002222 -0.099182 -0.007563
-0.015281 -0.098230 0.032519
-0.016848 -0.001696 -0.012056
-0.015334 0.063650 0.045289
0.017308 -0.094257 0.010523
-0.018070 0.028100 -0.012228
0.014936 -0.071923 -0.027951
0.003130 -0.099039 -0.007298
-0.016630 -0.089454 -0.015991
-0.029146 -0.010330 -0.013527
0.024501 0.086428 -0.009652
0.017473 0.073648 0.001669
0.015380 -0.095935 0.006430
0.001448 -0.098355 -0.011602
0.016919 -0.084759 -0.021511
0.017518 -0.024498 -0.013406
-0.013847 0.101726 0.036065
0.022161 0.033529 -0.016409
-0.015694 -0.091123 -0.014710
0.017444 0.070147 -0.008016
0.021884 0.095911 -0.008915
-0.002019 -0.099846 -0.009299
-0.015897 0.092193 0.044883
0.018794 0.016524 -0.013527
0.015380 -0.023165 0.045264
0.012747 -0.034312 -0.014277
0.020723 -0.022066 -0.013527
-0.017928 0.072116 -0.007652
0.002292 -0.100530 -0.030485
-0.017714 -0.088794 -0.005222
0.016310 -0.097299 0.024580
0.003618 -0.099281 -0.032837
0.014660 0.019583 -0.013527
-0.020591 0.098650 0.010254
0.017798 -0.076075 0.006022
-0.017804 -0.076075 0.006022
0.018248 -0.091307 0.028719
0.013588 -0.090874 -0.017529
0.017854 0.077780 0.005539
0.017746 -0.068390 0.006397
-0.005093 0.055655 -0.018968
0.027045 0.037698 -0.026675
0.021764 0.000976 -0.020027
-0.016902 0.028284 -0.013267
0.016881 0.101223 0.019693
-0.000666 -0.094864 -0.034453
0.022107 0.092115 0.011019
-0.016625 -0.097265 0.030207
-0.021578 0.006042 -0.016027
0.020011 0.031685 -0.016169
-0.018658 0.038326 -0.011077
0.007789 0.032730 -0.026896
0.020081 0.021219 -0.013527
-0.012475 -0.093936 0.042759
0.026256 0.017406 -0.020027
-0.018416 0.068907 -0.010873
-0.015399 -0.092664 -0.010423
0.017713 -0.064168 -0.009297
0.023472 -0.019353 -0.019027
0.011321 0.093818 0.045740
-0.021194 0.034408 -0.027205
0.024533 0.087480 -0.021336
0.014989 0.029932 -0.010915
-0.002005 -0.094863 -0.003178
0.024501 0.086428 -0.009652
-0.017360 0.082978 0.042714
-0.004003 -0.043382 -0.028457
-0.015552 0.014017 0.045165
0.001531 -0.097816 -0.009905
0.020081 0.021219 -0.013527
-0.001190 -0.096232 -0.007778
0.017737 -0.070244 0.004387
0.017782 -0.087245 0.040673
0.013646 -0.033296 -0.025781
0.003931 -0.100690 -0.026426
0.001145 -0.098631 -0.026387
-0.018251 -0.082861 -0.010479
0.016960 -0.016439 0.043730
-0.016731 -0.096685 0.034157
0.014004 -0.071949 -0.028229
0.019909 0.094566 0.029170
-0.004393 0.033403 -0.019027
0.022166 0.095131 -0.011560
-0.024008 0.035890 -0.027415
0.020789 0.097424 -0.003730
0.003140 -0.099223 -0.033178
0.016317 -0.092778 -0.006915
0.017619 0.026652 -0.012507
0.015252 0.073240 0.004264
0.014957 -0.092601 -0.011631
0.001449 -0.014073 -0.020027
-0.021097 0.091058 -0.020858
-0.004752 0.034872 -0.028444
0.002199 -0.101264 -0.015081
-0.013527 -0.087171 -0.023074
0.019681 0.000134 -0.012527
0.014053 0.083308 0.045712
0.003236 -0.099753 -0.032376
0.014592 -0.087351 -0.022508
-0.027572 -0.011596 -0.012527
-0.016723 -0.091042 -0.011423
-0.016887 0.101223 0.019693
-0.002235 -0.099540 -0.032724
0.012614 -0.031277 -0.012527
0.001488 -0.098785 -0.027766
-0.012753 -0.034312 -0.014277
0.016919 -0.084759 -0.021511
0.027312 0.036553 -0.025142
-0.008075 -0.029298 -0.025891
0.017317 -0.086721 0.042942
0.014897 -0.028037 -0.028008
0.018247 -0.082336 0.037986
0.018872 0.016590 -0.019827
0.024916 -0.003850 -0.012527
0.003997 -0.093850 -0.008650
0.018794 0.016524 -0.013527
0.016139 -0.001306 -0.011648
0.011375 -0.092379 0.044773
-0.017734 -0.069319 0.005617
-0.000003 -0.095844 -0.033244
0.017125 -0.096633 0.029165
0.002222 -0.099182 -0.007563
-0.015258 0.073580 0.003207
-0.025548 0.079890 -0.024872
0.016624 -0.089454 -0.015991
-0.016935 0.028865 -0.026721
-0.025494 0.074105 -0.026635
-0.024078 -0.001452 -0.020027
-0.024676 0.078308 -0.026707
-0.025061 0.080338 -0.025594
-0.011381 0.097348 0.043151
0.024249 0.039146 -0.015995
-0.022633 0.034246 -0.016058
-0.012877 0.094091 0.045554
0.012845 -0.027632 -0.026806
-0.017446 0.024791 -0.009050
0.019793 -0.022868 -0.019026
-0.003256 -0.097620 -0.005297
-0.014411 -0.026885 -0.025388
-0.000003 0.032323 -0.020027
0.017457 0.087227 0.042841
0.017018 -0.088441 -0.016019
-0.017601 -0.069846 0.004673
0.003879 -0.098207 -0.033408
-0.022596 0.088357 -0.023048
0.020633 0.093539 -0.017352
-0.014099 -0.095628 0.001663
0.016317 -0.092778 -0.006915
-0.003624 -0.099281 -0.032837
-0.018606 0.030769 -0.025400
-0.030552 0.002167 -0.012532
-0.011455 -0.064125 0.038373
-0.014010 -0.071949 -0.028229
0.026803 0.035781 -0.024759
0.017350 0.090056 0.043282
0.015762 -0.075080 -0.027226
-0.003992 -0.100250 -0.028638
0.016700 -0.079826 0.044123
-0.015665 0.096040 0.042435
-0.015314 0.023224 -0.010353
0.003701 -0.095221 0.042589
-0.026809 0.035781 -0.024759
0.003289 -0.096040 -0.003679
-0.019397 0.048926 -0.011996
0.020590 0.032796 -0.025571
0.014957 -0.092601 -0.011631
0.015219 -0.025836 -0.010685
-0.004003 -0.079449 -0.027557
-0.002165 -0.094947 -0.002846
0.016922 0.087465 0.044018
0.014052 0.094180 0.045271
0.017454 0.072714 0.005138
-0.019664 0.034343 -0.012551
-0.018695 0.096664 0.034848
-0.000003 0.033687 -0.027035
-0.022922 -0.000839 -0.016027
0.024398 0.004983 -0.016027
-0.015258 -0.066784 -0.007918
-0.015772 -0.097932 0.028574
-0.016872 0.031406 -0.027708
-0.013806 -0.089981 0.045553
-0.011495 -0.028189 -0.025831
0.017132 0.101357 0.030794
0.024249 0.039146 -0.015995
0.031204 0.006157 -0.013527
0.016905 -0.087152 0.043794
-0.015908 -0.094712 0.001089
-0.017513 -0.089142 0.041067
0.013861 -0.096605 0.007939
0.003997 -0.043382 -0.028457
-0.015257 0.069236 -0.008564
-0.013498 0.096467 0.043522
0.018670 0.061571 -0.011191
0.017716 -0.069299 -0.002816
-0.016805 0.048969 0.043970
-0.017322 -0.094871 0.035029
0.017889 0.028623 -0.010486
-0.003624 -0.099281 -0.032837
0.017440 -0.065312 -0.008858
-0.021888 0.023013 -0.012527
0.002846 0.017203 -0.020027
-0.021086 0.035508 -0.013810
-0.009217 0.030867 -0.020027
-0.001980 -0.095671 -0.005137
0.015252 -0.066775 0.006411
0.022590 0.088357 -0.023048
0.014900 -0.091538 -0.014942
0.012469 -0.093936 0.042759
0.017440 -0.065312 -0.008858
-0.013631 -0.078081 -0.027672
-0.013865 -0.097724 0.037126
-0.029927 0.011605 -0.013527
0.014957 -0.092601 -0.011631
-0.010834 -0.064906 0.045784
-0.013814 -0.027181 -0.025756
0.015140 0.029881 -0.018076
0.003897 -0.097013 -0.033927
0.018064 0.028100 -0.012228
-0.028114 0.037926 -0.024678
0.015766 -0.097932 0.028574
0.024335 0.085683 -0.023549
-0.000982 -0.096060 -0.033297
0.012845 -0.027632 -0.026806
0.015251 0.072622 -0.001819
-0.017724 0.070365 -0.008108
0.018248 -0.088184 0.007977
-0.017859 -0.024867 -0.012230
-0.003685 -0.094974 -0.003089
-0.000997 -0.098370 -0.027861
0.017484 0.073675 0.003088
0.008213 0.034170 -0.028383
0.001531 -0.097816 -0.009905
-0.000003 -0.043312 -0.028527
-0.015258 -0.067939 0.006109
-0.014059 0.083308 0.045712
0.018652 0.038326 -0.011077
-0.012653 -0.034204 -0.019018
0.024513 0.005001 -0.020027
0.020625 0.032557 -0.024732
-0.000003 0.094823 -0.015681
0.001531 -0.097816 -0.009905
0.010518 0.013441 -0.020027
-0.022995 0.094503 -0.006714
0.001824 -0.099071 -0.029068
-0.029775 0.008768 -0.012527
-0.030552 0.002167 -0.012532
0.011321 0.093818 0.045740
-0.020248 0.098886 0.016848
0.016799 0.048969 0.043970
-0.000003 -0.098442 0.023406
0.016680 0.027501 -0.012240
0.026801 0.036531 -0.026155
0.018064 0.028100 -0.012228
-0.015053 0.084361 0.045431
0.024378 0.080603 -0.026243
0.001764 -0.097102 -0.007859
-0.017174 -0.091570 -0.006110
0.014021 -0.088835 0.045677
-0.000003 0.098607 0.042730
-0.018394 0.100587 0.016181
-0.004003 -0.043382 -0.028457
0.019433 0.036383 -0.012001
0.018712 0.086821 0.017686
-0.019433 0.073880 -0.010670
0.011321 0.093818 0.045740
0.027567 0.014972 -0.012527
0.015764 -0.081505 -0.025687
0.017666 -0.091993 0.037516
0.028575 0.042404 -0.024380
-0.015890 -0.090594 0.044037
0.024325 0.090051 -0.016667
0.020371 0.037464 -0.012889
0.017676 0.072527 0.005624
-0.022746 0.041205 -0.014846
-0.013814 -0.027181 -0.025756
0.012813 0.010902 -0.020027
-0.019667 0.069153 -0.012561
0.016058 0.028884 -0.019023
-0.020362 0.094811 -0.014868
0.017716 -0.069299 -0.002816
0.006535 0.099681 0.041208
-0.012962 0.101447 0.037256
0.013917 -0.091701 -0.015450
0.031117 -0.003347 -0.019027
-0.030526 0.003887 -0.020027
0.012650 0.095380 0.044932
0.017513 0.068408 -0.008940
0.020749 0.019311 -0.013527
-0.017660 0.029717 -0.026132
-0.017948 0.070231 -0.009412
-0.018507 0.029415 -0.013611
0.015251 0.071073 -0.006637
0.018606 0.031530 -0.011738
-0.019223 0.031907 -0.012891
0.017192 0.030090 -0.026973
-0.001023 -0.098366 -0.013084
-0.001836 -0.098637 -0.010578
0.016025 -0.085780 -0.022658
-0.017743 -0.070244 0.004387
-0.028915 0.014252 -0.019027
-0.000003 -0.094741 -0.034452
-0.015258 -0.066775 0.006411
-0.016966 -0.016439 0.043730
-0.014024 -0.098518 0.029632
0.015020 0.029536 -0.009912
0.016007 -0.078398 -0.026463
0.020920 0.092333 -0.019220
0.002238 -0.101153 -0.013508
0.021531 0.095566 -0.011593
-0.015969 -0.097777 0.032844
-0.007471 -0.012222 -0.021516
0.013777 -0.028241 -0.012527
-0.003999 -0.100148 -0.012405
-0.027572 -0.011596 -0.012527
-0.021767 0.092773 -0.018122
-0.025635 0.040082 -0.027966
0.015252 -0.069101 0.005297
-0.014059 0.083308 0.045712
-0.019640 0.098863 0.002890
0.024670 0.078308 -0.026707
-0.023434 0.035986 -0.015829
0.027231 0.036212 -0.019035
-0.019658 0.034668 -0.027819
0.002222 -0.099182 -0.007563
-0.000003 -0.098142 -0.013138
-0.019193 0.099206 0.028972
-0.016031 -0.085780 -0.022658
0.012747 -0.033312 -0.025809
0.015238 0.029688 -0.012802
-0.026334 0.004694 -0.020027
-0.009695 -0.094941 0.042294
0.025005 0.034636 -0.025222
-0.012371 0.030732 -0.019027
0.022158 0.003464 -0.020027
-0.003294 -0.043369 -0.034517
0.018634 0.099977 0.030183
-0.021890 0.095911 -0.008915
-0.005162 0.033280 -0.026942
-0.015447 0.029472 -0.012066
0.006752 -0.012626 -0.020027
-0.013805 -0.003704 -0.022527
0.001774 -0.095159 -0.005422
-0.027318 0.036553 -0.025142
-0.000003 -0.095844 -0.033244
0.014578 0.068812 0.045598
-0.011286 0.067821 0.045776
-0.014678 0.045334 0.045563
0.003963 -0.098939 -0.008428
0.018872 0.016590 -0.019827
-0.015969 -0.097777 0.032844
0.026962 0.039031 -0.027179
0.014650 0.095066 0.044383
0.003701 -0.095221 0.042589
-0.025494 0.074105 -0.026635
0.015252 0.067995 -0.008966
-0.027209 0.036178 -0.024221
0.023603 0.034329 -0.017214
-0.021194 0.034408 -0.027205
0.017714 0.023505 -0.009292
0.017387 -0.066361 -0.008329
-0.022172 0.095131 -0.011560
-0.021602 0.095165 0.011759
-0.024795 0.035412 -0.026709
-0.027149 -0.014340 -0.013527
-0.016966 -0.016439 0.043730
0.006535 0.099681 0.041208
-0.013382 0.102013 0.035216
0.023897 -0.001410 -0.016027
0.023341 0.089600 0.000198
0.022905 0.033594 -0.018383
0.018483 0.099486 0.005184
-0.012890 -0.007432 -0.020027
0.015275 -0.098230 0.032519
-0.000003 0.100467 0.040613
0.015618 -0.097551 0.021690
0.017173 0.101453 0.027573
-0.001466 -0.098876 -0.013931
-0.011365 -0.007791 -0.022527
0.003618 -0.099281 -0.032837
-0.014846 0.030120 -0.012488
-0.015506 0.044389 0.045193
-0.015391 0.005224 -0.021527
-0.021076 0.097748 0.011025
0.006977 0.015894 -0.020027
0.026803 0.035781 -0.024759
-0.015213 -0.025874 -0.010660
0.020060 0.021333 -0.019950
0.015252 -0.069901 0.004207
-0.017174 -0.091570 -0.006110
0.022885 0.082709 -0.026361
0.002047 -0.099213 -0.032905
-0.025645 0.080207 -0.016475
0.014528 -0.090725 -0.017345
-0.014729 -0.096885 0.011358
-0.021097 0.091058 -0.020858
0.016856 -0.073879 0.043880
-0.003136 -0.099039 -0.007298
0.021878 0.033158 -0.016948
-0.024611 0.034292 -0.024379
-0.014519 -0.098487 0.032494
0.017092 -0.093242 0.038287
-0.005782 -0.098554 0.038134
0.001553 -0.098249 -0.030229
-0.017615 -0.024457 -0.013457
-0.002235 -0.099540 -0.032724
0.031117 -0.003347 -0.019027
0.012650 0.095380 0.044932
-0.015045 -0.003234 -0.020027
-0.015362 -0.001967 -0.021527
-0.000596 -0.096947 -0.009525
0.025005 0.034636 -0.025222
-0.026358 0.073874 -0.024747
-0.015293 -0.097093 0.014984
0.016452 -0.089804 0.043720
-0.015903 0.100920 0.035797
-0.018254 -0.088184 0.007977
-0.017721 0.073908 0.001469
0.018238 -0.090199 0.034450
-0.009235 -0.098700 0.036992
-0.013947 -0.098168 0.036181
-0.017100 0.093562 0.042462
-0.016887 0.101223 0.019693
0.001069 -0.097233 -0.031467
0.016799 0.048969 0.043970
0.022053 0.087018 -0.024310
0.014858 -0.003602 -0.020027
0.020762 0.032420 -0.016025
0.015414 0.094353 0.044407
0.025639 0.080207 -0.016475
0.014511 0.004603 -0.022527
0.007583 -0.011057 -0.022527
-0.010247 0.095762 0.044954
0.015860 -0.066360 0.044959
-0.009217 -0.027491 -0.020027
0.013789 -0.028840 -0.028278
-0.002028 -0.100304 -0.030473
-0.017672 -0.091993 0.037516
-0.021336 0.094042 -0.016063
0.010351 -0.010212 -0.020027
0.029636 0.009310 -0.020027
0.014215 -0.090682 0.045192
-0.024117 0.037063 -0.027919
0.016396 0.089676 0.044665
0.001824 -0.099071 -0.029068
0.001017 -0.097987 -0.011550
-0.016867 0.091007 0.044038
0.024605 0.034292 -0.024379
0.017710 0.071591 0.006321
0.024035 0.089865 -0.010188
-0.016420 0.101274 0.034041
-0.021239 0.080634 -0.008279
-0.011455 -0.064125 0.045773
-0.018723 0.034248 -0.011310
-0.015792 -0.005852 0.045014
0.000996 -0.094702 -0.006128
-0.000003 -0.043312 -0.028527
-0.024213 0.021879 -0.019027
0.013859 -0.097724 0.037126
0.021761 0.092773 -0.018122
-0.021665 0.097032 0.000666
0.024780 0.038617 -0.028086
0.017732 0.101137 0.022310
-0.027209 0.036178 -0.024221
0.017440 -0.065312 -0.008858
0.014993 -0.094697 -0.001957
0.013521 -0.087171 -0.023074
-0.027572 -0.011596 -0.012527
-0.017308 0.028607 -0.012192
0.026806 0.004454 -0.016027
0.001774 -0.099315 -0.013850
-0.015258 -0.070285 0.002662
0.014396 0.019726 -0.020025
0.026563 0.041538 -0.027611
0.015408 0.098568 0.039518
0.015252 -0.067619 -0.006821
0.016307 -0.092165 0.041672
-0.016747 -0.097040 0.032191
0.001406 -0.095290 -0.034489
-0.019440 0.097704 0.029925
-0.010561 0.068432 0.038389
-0.027913 0.003296 -0.020027
0.020558 0.033367 -0.014110
0.019499 0.002223 -0.012527
-0.020639 0.093539 -0.017352
-0.015389 -0.093620 -0.006436
-0.002298 -0.100530 -0.030485
-0.028569 0.040383 -0.024570
-0.014058 0.094180 0.045271
0.016619 -0.097265 0.030207
-0.022911 0.033594 -0.018383
-0.024331 0.090051 -0.016667
0.001145 -0.098631 -0.026387
-0.014598 -0.087351 -0.022508
-0.014534 -0.084236 -0.025112
-0.023517 0.079836 -0.027085
0.013692 0.095328 0.044648
-0.014878 -0.082322 -0.025987
0.015403 0.021471 -0.013527
0.017782 0.072674 0.011262
0.016090 0.020427 -0.011607
-0.015803 -0.015499 -0.011284
-0.014784 -0.026694 -0.024861
0.016658 0.031591 0.044172
-0.018575 0.074472 -0.007714
-0.000003 -0.095903 -0.033108
-0.003999 -0.096936 -0.033584
0.002238 -0.101153 -0.013508
0.021093 0.025114 -0.019027
0.023122 0.093834 -0.012613
0.023656 0.037186 -0.015754
0.000520 -0.097694 -0.011317
-0.016691 -0.083071 -0.023473
-0.012603 -0.034271 -0.014397
0.015750 -0.089793 0.044577
0.010351 -0.010212 -0.020027
-0.022060 0.071253 -0.015061
0.015997 -0.026700 -0.027328
0.009711 -0.091046 0.045645
0.001069 -0.097233 -0.031467
0.003957 -0.098863 -0.032622
-0.015776 0.001611 -0.021527
0.013744 -0.089609 -0.019910
-0.003136 -0.100939 -0.012100
-0.025496 0.037896 -0.027790
0.002245 -0.101274 -0.026115
-0.001978 -0.098142 -0.008347
-0.021890 0.095911 -0.008915
-0.000003 -0.031806 -0.028527
-0.017695 0.093294 0.041114
0.011449 -0.064125 0.038373
0.015323 -0.083473 -0.025075
0.017514 -0.095391 0.024014
0.030581 0.000588 -0.020027
0.013588 -0.090874 -0.017529
-0.023676 0.007066 -0.016027
0.015252 0.071007 0.006208
-0.026099 0.039084 -0.027726
0.026557 -0.015295 -0.013527
0.016626 0.014483 -0.011967
-0.001454 -0.098355 -0.011602
0.025800 0.035462 -0.025937
0.014232 -0.078056 -0.027562
0.015500 0.044389 0.045193
0.018652 0.038326 -0.011077
-0.015314 0.023224 -0.010353
0.024209 0.087400 -0.007390
0.015252 -0.067619 -0.006821
-0.027318 0.036553 -0.025142
0.001457 -0.096990 -0.032574
0.024249 0.039146 -0.015995
-0.017724 -0.065428 -0.009107
-0.017395 -0.067706 0.006234
-0.025508 0.082265 -0.023221
-0.003534 -0.013719 -0.021532
0.022158 0.003464 -0.020027
0.031204 0.006157 -0.013527
-0.016862 -0.073879 0.043880
0.003897 -0.097013 -0.033927
-0.019915 0.094566 0.029170
-0.003770 -0.096466 -0.004503
-0.017743 0.067709 -0.009273
-0.002214 -0.100876 -0.011974
-0.000003 0.087879 -0.024288
0.012982 -0.097770 0.037680
0.019177 0.098264 -0.002007
-0.017520 -0.095391 0.024014
-0.028262 0.001384 -0.020027
0.017473 0.073648 0.001669
0.014099 -0.097522 0.015653
0.015764 -0.081505 -0.025687
-0.024008 0.035890 -0.027415
-0.002019 -0.099846 -0.009299
0.024752 0.074198 -0.027329
0.022597 0.076998 -0.027882
-0.011381 0.097348 0.043151
0.020641 0.032491 -0.019033
-0.022633 0.034246 -0.016058
0.025639 0.080207 -0.016475
0.014660 0.019583 -0.013527
0.016202 -0.025906 -0.011711
-0.024644 0.082753 -0.025041
0.014354 0.101335 0.036591
-0.019529 0.035823 -0.028158
-0.030091 -0.007719 -0.019027
-0.012434 -0.091152 0.045420
0.021546 0.033053 -0.019070
-0.017788 -0.067669 -0.010493
-0.013950 -0.093265 0.042897
-0.027728 -0.000160 -0.020027
0.029770 -0.005392 -0.012527
-0.003624 -0.099281 -0.032837
0.014396 0.019726 -0.020025
0.016313 -0.025293 -0.019022
-0.014999 -0.094697 -0.001957
0.011449 -0.064125 0.045773
0.021080 0.035508 -0.013810
-0.013382 0.102013 0.035216
-0.006116 0.016245 -0.021542
0.020749 0.019311 -0.013527
-0.003969 -0.098939 -0.008428
-0.000003 0.102209 0.032164
0.017728 -0.069319 0.005617
-0.025756 0.058001 -0.017654
0.019164 0.016471 -0.020027
-0.017724 -0.070490 0.003478
-0.028569 0.040383 -0.024570
-0.024603 -0.018026 -0.013527
-0.015694 -0.091123 -0.014710
-0.017915 -0.092898 0.034221
-0.016653 -0.072059 -0.026556
0.016037 0.008430 -0.011554
-0.018489 0.099486 0.005184
0.002013 -0.099846 -0.009299
0.026556 0.018671 -0.013527
-0.017724 0.030876 -0.009238
-0.004752 0.034872 -0.028444
-0.016993 0.083478 0.043693
-0.000003 0.032323 -0.020027
-0.023661 0.092731 -0.012545
0.016202 -0.025906 -0.011711
-0.003903 -0.097013 -0.033927
0.017454 0.072714 0.005138
0.025959 0.077767 -0.017868
-0.003999 -0.100148 -0.012405
0.017302 0.028606 -0.026060
-0.013841 -0.085896 -0.024194
-0.016241 -0.087199 0.044636
0.014756 0.000875 -0.022527
-0.019724 0.096757 -0.009310
-0.018070 0.028100 -0.012228
-0.003136 -0.100939 -0.012100
0.003931 -0.100690 -0.026426
-0.001466 -0.098876 -0.013931
0.014396 0.019726 -0.020025
0.018358 0.093228 0.038757
0.026225 -0.015803 -0.019027
-0.017895 0.028623 -0.010486
-0.023618 0.091382 -0.017741
-0.017788 -0.087245 0.040673
-0.018723 0.034248 -0.011310
0.010680 -0.028481 -0.026843
-0.021929 0.002855 -0.020027
-0.002021 -0.097253 -0.005197
-0.001466 -0.098876 -0.013931
0.016651 -0.080279 -0.024971
-0.002015 -0.098446 -0.033524
-0.016731 -0.096685 0.034157
0.015786 -0.005852 0.045014
0.014951 -0.097633 0.036248
0.017714 0.023505 -0.009292
0.012388 -0.026248 -0.020027
-0.001151 -0.098631 -0.026387
0.021070 0.097748 0.011025
0.016717 -0.091042 -0.011423
-0.001966 -0.098979 -0.030833
0.015125 -0.065327 0.045388
0.003206 -0.099904 -0.008977
0.020944 0.089822 -0.022186
0.016266 -0.080656 -0.025414
-0.010335 0.094899 0.045478
0.025005 0.034636 -0.025222
-0.017622 0.099875 0.034368
-0.012405 0.011458 -0.021516
-0.008219 0.034170 -0.028383
0.023511 0.079836 -0.027085
0.025804 0.036110 -0.026711
-0.013782 -0.028241 -0.012527
0.015308 0.023224 -0.010353
0.017600 -0.054405 0.006592
0.015244 -0.090574 -0.016826
-0.014999 -0.094697 -0.001957
-0.010561 0.068432 0.038389
-0.021096 0.096562 -0.008312
0.001989 -0.030268 -0.025997
0.015766 -0.097932 0.028574
-0.015258 -0.067619 -0.006821
0.003950 -0.043381 -0.033924
0.017909 -0.092898 0.034221
0.031204 -0.002781 -0.013527
-0.017356 0.090056 0.043282
0.013789 -0.028840 -0.028278
0.016396 0.089676 0.044665
-0.016208 -0.025906 -0.011711
0.017670 -0.067924 -0.006740
0.019711 0.031592 -0.018742
-0.000003 -0.096742 0.007130
0.020084 0.004245 -0.012527
-0.024795 0.035412 -0.026709
-0.015389 -0.093620 -0.006436
-0.017948 0.070231 -0.009412
0.003882 -0.097991 -0.006643
-0.016902 0.028284 -0.013267
0.014056 -0.094286 -0.005628
-0.008708 -0.092175 0.045146
-0.005162 0.033280 -0.026942
0.016725 -0.096685 0.034157
0.003701 -0.095221 0.042589
0.017728 -0.069319 0.005617
-0.013805 -0.003704 -0.022527
0.017853 -0.024867 -0.012230
0.016025 -0.085780 -0.022658
-0.015257 0.071073 -0.006637
-0.025276 0.082568 -0.014556
0.017619 0.026652 -0.012507
0.017372 0.015548 -0.012200
-0.023517 0.079836 -0.027085
0.016861 0.091007 0.044038
-0.020089 -0.000869 -0.012527
-0.014218 0.008526 -0.021536
-0.027660 0.036873 -0.024517
0.022828 0.086362 -0.024445
0.017713 -0.064168 -0.009297
0.003993 -0.100148 -0.012405
0.014998 -0.026567 -0.010942
-0.000003 0.098607 0.042730
-0.027060 0.004300 -0.016027
0.003618 -0.099281 -0.032837
-0.009898 -0.098175 0.038208
-0.016887 0.101223 0.019693
-0.017714 -0.088794 -0.005222
0.020641 0.032491 -0.019033
0.013967 -0.074771 -0.028083
-0.015665 0.096040 0.042435
0.019793 -0.022868 -0.019026
0.021590 0.033424 -0.025744
-0.000003 -0.095358 -0.000595
-0.015257 0.071073 -0.006637
0.016310 -0.097299 0.024580
-0.018695 0.096664 0.034848
-0.000003 -0.097916 -0.012264
-0.015329 -0.083473 -0.025075
0.016624 -0.089454 -0.015991
0.024780 0.038617 -0.028086
0.021487 0.079220 -0.010531
-0.015914 0.083157 0.044925
-0.019182 0.100156 0.017827
0.000514 -0.098225 -0.027549
0.028274 0.038357 -0.019031
0.025115 0.085172 -0.021901
-0.028354 0.038833 -0.024546
0.001297 -0.030335 -0.026963
0.008260 0.102125 0.036771
0.002018 -0.100946 -0.013479
0.018697 0.070710 -0.010934
-0.017744 -0.070694 0.001978
-0.016333 -0.012005 -0.011791
-0.018368 0.084931 0.032058
0.003997 -0.093850 -0.008650
0.024111 0.037063 -0.027919
0.014021 -0.088835 0.045677
0.016065 -0.090275 -0.015940
0.017520 0.069201 -0.008661
0.003206 -0.099904 -0.008977
-0.015131 -0.065327 0.045388
-0.004003 -0.090856 -0.018041
0.015737 0.000236 -0.020027
-0.018130 0.037566 -0.010274
0.002015 -0.097253 -0.005197
-0.000003 -0.094568 -0.006302
0.014872 -0.082322 -0.025987
0.009689 -0.094941 0.042294
0.018193 0.028011 -0.014269
0.017093 -0.090070 -0.011746
-0.015504 -0.094164 0.040361
-0.021848 0.073611 -0.014415
-0.003218 -0.096471 -0.034511
-0.024542 0.088513 -0.019548
-0.016723 -0.091042 -0.011423
0.016025 0.028180 -0.011798
-0.016632 0.014483 -0.011967
0.023505 0.086989 -0.023524
0.001720 -0.099262 -0.026364
0.003957 -0.098863 -0.032622
-0.016691 -0.083071 -0.023473
-0.014490 -0.098347 0.034865
0.015357 -0.001967 -0.021527
-0.014719 -0.095921 0.004555
-0.024539 0.087480 -0.021336
-0.016935 0.028865 -0.026721
0.028143 0.000814 -0.016027
-0.017788 0.072674 0.011262
0.014136 -0.085598 0.045710
-0.018263 0.082749 0.024040
-0.002228 -0.099182 -0.007563
0.020789 0.097424 -0.003730
0.013808 -0.027181 -0.025756
-0.015386 -0.023165 0.045264
-0.018368 0.084931 0.032058
0.015526 0.028797 -0.011231
-0.014496 0.097184 0.042124
0.015275 -0.098230 0.032519
-0.016313 -0.092165 0.041672
-0.017928 0.072116 -0.007652
-0.015301 0.001979 -0.010163
0.021627 0.088249 -0.023513
-0.003584 -0.098284 -0.006432
0.003986 -0.100250 -0.028638
-0.020591 0.098650 0.010254
0.003997 -0.086258 -0.024158
0.019434 0.097704 0.029925
-0.001494 -0.098785 -0.027766
-0.017360 0.082978 0.042714
-0.018388 0.028992 -0.019003
0.023144 0.089105 -0.021880
-0.022230 0.080550 -0.027244
0.013376 0.102013 0.035216
-0.003204 -0.101269 -0.026759
-0.026230 -0.015803 -0.019027
0.025502 0.082265 -0.023221
-0.017436 -0.069286 0.005181
0.002180 -0.031748 -0.028489
-0.014942 -0.071923 -0.027951
0.003764 -0.096466 -0.004503
-0.029071 -0.002162 -0.016027
0.015252 -0.066775 0.006411
0.022656 -0.000599 -0.020027
0.016866 0.031406 -0.027708
-0.013841 -0.085896 -0.024194
0.018501 0.029415 -0.013611
0.002309 -0.101137 -0.027860
-0.021848 0.073611 -0.014415
-0.016300 -0.005749 0.044577
0.002247 -0.098711 -0.033633
-0.018364 0.093228 0.038757
0.015383 -0.093620 -0.006436
-0.020046 0.096576 0.026888
-0.022113 0.092115 0.011019
0.003236 -0.099753 -0.032376
-0.002153 -0.028779 -0.020027
-0.001454 -0.098355 -0.011602
-0.014584 0.068812 0.045598
-0.018507 0.029415 -0.013611
-0.015058 0.093274 0.045180
0.016534 -0.025708 -0.026736
0.024249 0.039146 -0.015995
0.011489 -0.028189 -0.025831
0.013492 0.096467 0.043522
-0.015258 0.067995 -0.008966
0.019176 0.100156 0.017827
-0.017345 0.026933 -0.012470
-0.015258 0.072565 0.005197
-0.016862 -0.073879 0.043880
-0.000003 0.101854 0.024030
-0.030585 0.001217 -0.016027
-0.018469 0.029893 -0.012498
-0.000003 -0.093769 0.044091
0.028143 0.000814 -0.016027
-0.017630 -0.066276 -0.008551
-0.000003 0.074421 -0.028504
-0.021885 0.083667 -0.026201
-0.001726 -0.099262 -0.026364
0.017782 -0.067669 -0.010493
-0.003902 -0.100716 -0.013879
-0.015956 -0.025593 -0.012533
-0.011926 0.033051 -0.028326
-0.015386 -0.023165 0.045264
0.021546 0.033053 -0.019070
0.016596 -0.087598 -0.019338
-0.013806 -0.089981 0.045553
0.026962 0.039031 -0.027179
0.017713 0.070266 0.006750
-0.017339 -0.079722 0.042804
-0.018656 0.099215 0.032012
0.030201 0.006613 -0.012527
0.016065 -0.090275 -0.015940
-0.017089 0.092180 0.043336
-0.003136 -0.099039 -0.007298
0.027984 0.051026 -0.019027
0.013799 -0.003704 -0.022527
0.023709 0.082687 -0.025965
0.000660 -0.094864 -0.034453
0.029066 0.005538 -0.016027
0.003794 -0.100547 -0.029046
-0.003136 -0.100939 -0.012100
-0.018028 0.033292 -0.010171
0.012982 -0.097770 0.037680
0.014989 0.029932 -0.010915
0.015380 -0.023165 0.045264
-0.001303 0.033710 -0.019027
-0.027572 -0.011596 -0.012527
-0.017695 0.093294 0.041114
-0.016706 -0.079826 0.044123
-0.000003 -0.098859 0.032800
0.007180 0.014636 -0.022527
-0.017345 0.026933 -0.012470
-0.029146 -0.010330 -0.013527
0.026956 -0.003477 -0.012527
0.003212 -0.096471 -0.034511
0.017317 -0.086721 0.042942
0.022726 0.061268 -0.015301
0.014232 -0.078056 -0.027562
-0.018251 -0.087948 0.036597
-0.022131 0.077859 -0.012763
-0.030091 -0.007719 -0.019027
-0.017106 0.036532 0.043443
-0.004003 -0.043382 -0.028457
-0.022596 0.088357 -0.023048
0.014650 0.095066 0.044383
-0.014215 -0.027546 -0.019027
-0.016573 0.092576 0.044073
-0.026009 0.077800 -0.024255
0.020011 0.031685 -0.016169
-0.017541 0.100878 0.032036
0.030402 0.010016 -0.019027
0.027595 0.041281 -0.026794
-0.021086 0.035508 -0.013810
-0.014784 -0.026694 -0.024861
-0.001454 0.017449 -0.020027
0.016803 -0.091271 0.041581
0.015252 0.073580 0.003207
-0.021578 0.006042 -0.016027
0.030579 0.002159 -0.016027
-0.015856 -0.033058 0.044965
0.026803 0.035781 -0.024759
-0.023609 0.034329 -0.017214
-0.014360 0.101335 0.036591
-0.017676 -0.067924 -0.006740
-0.017084 -0.076488 -0.025015
0.000976 -0.096060 -0.033297
-0.017541 0.042797 -0.009064
-0.000003 0.102258 0.037436
0.014580 -0.032615 0.045587
0.016426 -0.088390 0.044259
0.009880 -0.010607 -0.021520
-0.023715 0.082687 -0.025965
0.011280 0.067821 0.038376
-0.016625 -0.097265 0.030207
-0.009717 -0.091046 0.045645
-0.025965 0.077767 -0.017868
-0.026807 0.036531 -0.026155
0.015616 -0.089003 -0.019303
0.020641 0.032491 -0.019033
-0.008219 0.034170 -0.028383
0.016414 0.101274 0.034041
-0.000003 -0.043312 -0.028527
-0.021560 -0.021314 -0.013527
0.016041 -0.095576 0.037633
-0.027728 -0.000160 -0.020027
0.001069 -0.097233 -0.031467
0.024984 0.083857 -0.023731
-0.014952 -0.086988 0.045476
-0.027060 0.004300 -0.016027
-0.014058 0.094180 0.045271
0.021647 0.033146 -0.024836
0.019117 0.022022 -0.019826
0.001460 -0.098876 -0.013931
-0.019193 0.099206 0.028972
0.019164 0.016471 -0.020027
0.017514 -0.095391 0.024014
0.001999 -0.094863 -0.003178
0.015577 -0.088470 0.045040
0.029636 0.009310 -0.020027
-0.016632 0.014483 -0.011967
0.007583 -0.011057 -0.022527
0.017498 -0.095840 0.029620
-0.000504 -0.097834 -0.029258
-0.014671 -0.093818 0.041686
-0.015211 0.029845 -0.017973
0.003957 -0.096403 -0.004954
-0.019361 0.031648 -0.013419
-0.019860 0.072330 -0.012176
0.023963 0.090032 -0.019259
-0.015512 -0.026302 -0.010848
0.017922 0.072116 -0.007652
0.028186 0.002633 -0.016027
0.017737 0.071278 -0.006982
-0.003242 -0.099753 -0.032376
0.021754 0.037494 -0.014140
0.016182 0.046185 0.044689
0.017390 0.016276 -0.019967
0.016861 0.091007 0.044038
-0.025916 -0.003769 -0.012527
-0.000003 0.101836 0.038683
0.006535 0.099681 0.041208
0.017654 0.029717 -0.026132
0.019726 0.032422 -0.026065
-0.017099 -0.090070 -0.011746
-0.022834 0.086362 -0.024445
-0.017393 -0.066361 -0.008329
0.016624 -0.089454 -0.015991
0.016579 0.029057 -0.011930
0.020040 0.096576 0.026888
0.017173 0.101453 0.027573
0.015983 0.029408 -0.010707
-0.011493 0.067229 0.045772
0.028444 -0.011899 -0.019027
-0.015709 0.101809 0.032909
-0.010853 0.101485 0.038050
-0.015350 -0.097883 0.034913
0.028575 0.042404 -0.024380
0.021425 0.033265 -0.015557
-0.000003 -0.098859 0.032800
0.006977 0.015894 -0.020027
-0.015694 -0.091123 -0.014710
-0.017464 0.073718 0.002459
-0.001454 0.017449 -0.020027
-0.003600 -0.101097 -0.026737
-0.020038 0.078104 -0.007929
0.014139 -0.005300 -0.021529
0.027769 0.038854 -0.026244
0.014232 -0.078056 -0.027562
0.015404 0.029736 -0.017659
-0.026321 0.035463 -0.025151
-0.022427 0.084953 -0.025484
0.020717 0.024210 -0.020027
-0.017151 0.055243 0.043341
-0.028649 0.012457 -0.020027
-0.017446 -0.065312 -0.008858
-0.018789 0.029814 -0.015500
0.017716 -0.067002 -0.008190
0.021752 0.006199 -0.012527
0.014053 0.083308 0.045712
0.013646 -0.033296 -0.025781
-0.000003 0.095094 0.045624
0.016317 -0.092778 -0.006915
0.000624 -0.094169 -0.005898
-0.001830 -0.099071 -0.029068
-0.004003 -0.087684 -0.022800
0.017907 0.029362 -0.025154
0.017624 -0.066276 -0.008551
-0.014993 -0.085451 -0.024012
-0.027051 0.037698 -0.026675
0.023472 -0.019353 -0.019027
-0.017198 0.030090 -0.026973
-0.000003 0.035205 -0.028527
-0.016241 -0.087199 0.044636
-0.018180 0.100919 0.025348
0.018358 0.093228 0.038757
-0.018254 -0.091307 0.028719
-0.018364 0.093228 0.038757
0.024035 0.089865 -0.010188
-0.016630 -0.089454 -0.015991
-0.016145 -0.001306 -0.011648
0.015983 0.029408 -0.010707
-0.000003 -0.095358 -0.000595
-0.017460 0.072714 0.005138
0.014973 -0.075243 -0.027692
0.017514 -0.095391 0.024014
-0.013908 -0.094031 0.041969
-0.015258 0.072565 0.005197
0.016007 -0.078398 -0.026463
-0.000003 -0.098275 -0.026733
-0.015316 0.031453 -0.028224
0.015252 -0.064698 -0.008956
-0.020795 0.097424 -0.003730
0.015766 -0.097932 0.028574
-0.003256 -0.097620 -0.005297
-0.027149 -0.014340 -0.013527
-0.019833 0.070451 -0.012673
-0.000521 -0.095964 -0.007946
-0.016264 -0.097344 0.033901
-0.017720 0.023505 -0.009292
0.013953 0.092619 0.045693
0.020935 -0.002104 -0.012527
0.014053 0.083308 0.045712
0.017363 -0.070263 0.001704
0.020084 -0.000869 -0.016027
-0.017734 -0.069319 0.005617
-0.020631 0.032557 -0.024732
-0.003999 -0.100148 -0.012405
-0.017463 0.087227 0.042841
0.013777 0.031617 -0.012527
0.027567 0.014972 -0.012527
0.016803 -0.091271 0.041581
-0.017526 0.069201 -0.008661
0.018860 0.032381 -0.026911
0.025490 0.037896 -0.027790
-0.001023 -0.098366 -0.013084
-0.000003 -0.095903 -0.033108
-0.019640 0.098863 0.002890
-0.000003 0.099226 0.001395
-0.017676 -0.067924 -0.006740
0.010847 0.101485 0.038050
0.025488 0.074105 -0.026635
-0.000003 -0.043312 -0.028527
-0.015709 0.101809 0.032909
0.013063 -0.007220 -0.020027
-0.016272 -0.080656 -0.025414
-0.029775 0.008768 -0.012527
-0.016402 0.089676 0.044665
-0.022060 0.071253 -0.015061
0.017714 0.023505 -0.009292
0.014754 -0.088824 -0.020553
0.021895 0.091693 -0.019710
0.017922 0.072116 -0.007652
-0.006982 0.101589 0.038667
0.017018 -0.088441 -0.016019
0.017484 0.073675 0.003088
0.015506 -0.026302 -0.010848
-0.026699 0.007026 -0.016027
-0.017676 -0.067924 -0.006740
0.018269 0.083970 0.037923
-0.020025 -0.000742 -0.016027
-0.015258 0.067995 -0.008966
-0.017526 0.069201 -0.008661
-0.031508 0.002809 -0.013527
0.013070 0.010585 -0.021513
-0.027760 0.037026 -0.019040
-0.014029 0.031100 -0.019027
0.000498 -0.097834 -0.029258
0.015251 0.071073 -0.006637
0.019047 -0.022262 -0.020027
0.020589 0.018563 -0.019827
0.002222 -0.099182 -0.007563
-0.015258 -0.066775 0.006411
0.016967 0.100788 0.034214
-0.026428 0.073188 -0.019012
0.024208 0.021879 -0.019027
0.017561 -0.070418 0.002071
-0.014993 -0.085451 -0.024012
-0.016333 -0.012005 -0.011791
-0.013973 -0.074771 -0.028083
0.014018 -0.098518 0.029632
-0.021537 0.095566 -0.011593
0.001976 -0.099878 -0.027359
0.019427 0.073880 -0.010670
0.021659 0.097032 0.000666
-0.015552 0.014017 0.045165
-0.001469 -0.095688 -0.034342
0.021048 0.074712 -0.012905
-0.002315 -0.101137 -0.027860
0.017449 0.073391 0.004104
-0.023662 0.037186 -0.015754
0.001971 -0.097192 -0.034090
-0.018612 0.031530 -0.011738
0.002247 -0.098711 -0.033633
-0.018489 0.099486 0.005184
-0.022230 0.080550 -0.027244
0.015525 0.004546 -0.020027
0.016058 0.028884 -0.019023
-0.015258 0.073580 0.003207
0.013835 -0.085896 -0.024194
0.017689 0.093294 0.041114
-0.006541 0.099681 0.041208
0.025270 0.082568 -0.014556
-0.016069 -0.024747 -0.011832
-0.016952 -0.088666 0.043361
0.014952 -0.002055 0.045461
-0.015772 -0.097932 0.028574
-0.026261 0.037097 -0.027101
0.015703 0.101809 0.032909
-0.026043 0.073838 -0.025766
-0.024775 0.004953 -0.020027
0.003594 -0.101097 -0.026737
0.021093 0.025114 -0.019027
0.015884 -0.090594 0.044037
-0.026321 0.035463 -0.025151
0.017535 0.042797 -0.009064
0.010555 0.068432 0.038389
0.021330 0.094042 -0.016063
0.000515 -0.095964 -0.007946
0.017454 0.072714 0.005138
-0.003147 -0.097499 -0.034325
-0.027627 0.037423 -0.025640
0.018384 0.022556 -0.020026
-0.028156 0.038897 -0.025459
-0.024603 -0.018026 -0.013527
-0.016980 -0.080694 -0.023961
-0.000003 0.093931 0.045953
-0.014656 0.095066 0.044383
0.002280 -0.096960 -0.034461
0.012347 -0.008141 -0.021523
-0.017308 0.028607 -0.012192
0.018650 0.099215 0.032012
-0.017734 -0.069319 0.005617
0.015539 -0.087263 -0.021766
-0.026809 0.035781 -0.024759
-0.021552 0.033053 -0.019070
0.015090 -0.026533 -0.026760
-0.009609 0.014217 -0.021517
-0.010247 0.095762 0.044954
-0.016625 -0.097265 0.030207
-0.015420 0.094353 0.044407
0.003897 -0.097013 -0.033927
-0.015213 -0.025874 -0.010660
0.004746 0.034872 -0.028444
-0.001466 -0.098876 -0.013931
0.017666 -0.091993 0.037516
0.018247 -0.082336 0.037986
-0.008957 -0.028615 -0.019027
-0.026508 0.035447 -0.019062
0.024150 0.076640 -0.027404
-0.017098 -0.093242 0.038287
-0.012531 -0.052824 -0.018969
-0.016128 -0.081986 0.044779
-0.023661 0.092731 -0.012545
0.021091 0.091058 -0.020858
-0.003136 -0.099039 -0.007298
0.015660 0.089411 0.045206
0.014858 -0.003602 -0.020027
-0.001899 -0.095399 -0.000959
-0.017569 -0.078505 -0.020478
-0.017517 0.069767 0.006526
-0.012753 -0.033312 -0.025809
-0.021653 0.033146 -0.024836
-0.015545 -0.087263 -0.021766
0.024501 0.086428 -0.009652
0.019711 0.031592 -0.018742
0.022590 0.088357 -0.023048
0.020317 0.032354 -0.014806
0.022885 0.082709 -0.026361
0.017036 -0.096203 0.021761
-0.015350 -0.097883 0.034913
0.020081 0.021219 -0.013527
0.011920 0.033051 -0.028326
-0.021883 0.094358 -0.014687
0.003997 -0.093850 -0.008650
-0.003620 -0.097111 -0.034264
-0.012619 0.034653 -0.012527
-0.017622 0.099875 0.034368
-0.010816 0.101937 0.037086
-0.011493 0.067229 0.045772
-0.022676 -0.018865 -0.012527
0.003997 -0.075659 -0.028215
0.012747 -0.034312 -0.014277
-0.019732 0.032422 -0.026065
-0.014218 0.008526 -0.021536
-0.016902 0.028284 -0.013267
0.014858 -0.003602 -0.020027
0.022054 0.071253 -0.015061
-0.015112 0.006481 -0.020027
0.024325 0.090051 -0.016667
0.012587 -0.034252 -0.014452
-0.010686 -0.028481 -0.026843
-0.016573 0.092576 0.044073
0.003139 -0.095038 -0.002813
0.022044 0.006357 -0.016027
-0.017467 -0.069064 -0.002671
0.017389 -0.067706 0.006234
0.016717 -0.091042 -0.011423
-0.014658 0.012809 0.045579
0.015860 -0.066360 0.044959
0.017798 -0.076075 0.006022
-0.018877 0.091149 0.036682
-0.012756 0.098984 0.040777
-0.001559 -0.098249 -0.030229
-0.024704 0.035487 -0.017197
-0.021578 0.006042 -0.016027
-0.005162 0.033280 -0.026942
-0.015741 -0.024488 -0.020027
0.015252 -0.067619 -0.006821
0.023505 0.086989 -0.023524
-0.017724 -0.070490 0.003478
0.015020 0.029536 -0.009912
0.029636 0.009310 -0.020027
-0.015634 0.009854 -0.011044
-0.012656 0.095380 0.044932
-0.000003 0.083595 -0.026660
-0.003707 -0.095221 0.042589
0.023709 0.082687 -0.025965
0.021776 0.000979 -0.016027
0.017926 -0.090432 0.037551
-0.016985 -0.011499 -0.012115
-0.021097 0.091058 -0.020858
0.003289 -0.096040 -0.003679
-0.015328 0.091630 0.045300
-0.015258 -0.064698 -0.008956
-0.013382 0.102013 0.035216
-0.016867 0.091007 0.044038
0.017561 -0.070418 0.002071
0.022297 0.090596 -0.020904
-0.017020 -0.020411 -0.012132
0.020558 0.033367 -0.014110
-0.025418 0.076859 -0.026202
0.020112 0.017577 -0.013527
-0.017928 0.072116 -0.007652
0.012347 -0.008141 -0.021523
0.025639 0.080207 -0.016475
0.018120 0.081034 0.008570
0.002280 -0.096960 -0.034461
0.015251 0.072622 -0.001819
-0.017751 0.073037 0.005387
-0.024611 0.034292 -0.024379
-0.013841 -0.085896 -0.024194
0.011275 -0.096136 0.040537
-0.018364 0.093228 0.038757
-0.001463 -0.096990 -0.032574
0.000996 -0.094702 -0.006128
0.005026 -0.098120 0.038991
0.001448 -0.098355 -0.011602
-0.014586 -0.032615 0.045587
0.017714 0.023505 -0.009292
-0.013782 -0.028241 -0.012527
-0.026428 0.073188 -0.019012
-0.014029 0.031100 -0.019027
0.002238 -0.101153 -0.013508
0.021090 0.095182 -0.013439
0.017600 -0.054405 0.006592
-0.024542 0.088513 -0.019548
-0.017743 0.067709 -0.009273
-0.016612 -0.085443 -0.021860
-0.009235 -0.098700 0.036992
0.014136 -0.085598 0.045710
-0.000003 -0.097916 -0.012264
-0.002235 -0.099540 -0.032724
0.001449 -0.014073 -0.020027
0.002180 -0.031748 -0.028489
0.019262 0.031006 -0.014304
-0.021760 0.037494 -0.014140
0.027468 -0.000481 -0.016027
0.029066 0.005538 -0.016027
0.017680 0.033232 -0.027936
-0.007186 0.014636 -0.022527
0.023377 0.074620 -0.027977
-0.016136 0.029324 -0.011584
0.017452 -0.070221 0.003457
-0.018548 0.082818 0.008638
-0.012299 0.011654 -0.020027
-0.024786 0.038617 -0.028086
-0.028219 0.015746 -0.013527
-0.017467 -0.069064 -0.002671
0.020953 0.019726 -0.020025
0.017148 -0.071956 -0.025550
-0.019732 0.032422 -0.026065
-0.016458 -0.089804 0.043720
-0.014142 -0.085598 0.045710
-0.000003 -0.094328 -0.006155
-0.010233 -0.065126 0.045794
0.015287 -0.097093 0.014984
0.024789 0.035412 -0.026709
0.017752 0.068955 -0.009073
0.014756 0.000875 -0.022527
0.016658 0.031591 0.044172
0.015539 -0.087263 -0.021766
-0.014027 -0.088835 0.045677
0.020084 0.004245 -0.012527
0.002222 -0.099182 -0.007563
0.026093 0.039084 -0.027726
-0.002099 0.033630 -0.027001
-0.015941 -0.091764 -0.012205
-0.014906 -0.091538 -0.014942
0.014018 -0.098518 0.029632
-0.010233 -0.065126 0.045794
0.016202 -0.025906 -0.011711
0.017014 -0.020411 -0.012132
0.007180 0.014636 -0.022527
-0.000003 0.078025 -0.028156
0.014484 -0.098347 0.034865
0.014977 0.017935 -0.013527
-0.021319 0.033680 -0.026394
-0.023478 -0.019353 -0.019027
-0.017413 -0.066714 0.006482
0.025639 0.080207 -0.016475
0.017302 0.028606 -0.026060
0.006752 -0.012626 -0.020027
-0.000003 0.100467 0.040613
-0.014952 -0.086988 0.045476
0.023963 0.090032 -0.019259
0.019689 0.031779 -0.024415
0.025911 0.007145 -0.012527
0.028274 0.038357 -0.019031
-0.001420 0.033661 -0.019027
0.016130 0.029324 -0.011584
-0.012851 -0.027632 -0.026806
-0.013698 0.095328 0.044648
0.026806 0.004454 -0.016027
-0.023715 0.082687 -0.025965
0.015252 -0.070168 0.001558
-0.014032 -0.092733 -0.012261
0.021842 0.073611 -0.014415
-0.017356 0.090056 0.043282
-0.025916 -0.003769 -0.012527
-0.015258 0.073240 0.004264
0.017507 -0.089142 0.041067
0.003896 -0.100716 -0.013879
-0.000003 -0.030311 -0.027035
0.015252 0.072565 0.005197
0.017907 0.029362 -0.025154
0.015252 0.073650 0.002109
0.018124 0.037566 -0.010274
0.007180 0.014636 -0.022527
-0.016420 0.101274 0.034041
0.002258 -0.100375 -0.010171
0.020032 0.078104 -0.007929
-0.001136 -0.094257 -0.005628
0.023963 0.090032 -0.019259
